-32.000000 2064.000000 -488.000000
-32.000000 2062.693175 -486.485996
-32.000000 2061.386350 -484.971991
-32.000000 2060.079526 -483.457987
-32.000000 2058.772701 -481.943983
-32.000000 2057.465876 -480.429978
-32.000000 2056.159051 -478.915974
-32.000000 2054.852227 -477.401970
-32.000000 2053.545402 -475.887966
-32.000000 2052.238577 -474.373961
-32.000000 2050.931752 -472.859957
-32.000000 2049.624928 -471.345953
-32.000000 2048.318103 -469.831948
-32.000000 2047.011278 -468.317944
-32.000000 2045.704453 -466.803940
-32.000000 2044.397628 -465.289935
-32.000000 2043.090804 -463.775931
-32.000000 2041.783979 -462.261927
-32.000000 2040.477154 -460.747923
-32.000000 2039.170329 -459.233918
-32.000000 2037.863505 -457.719914
-32.000000 2036.556680 -456.205910
-32.000000 2035.249855 -454.691905
-32.000000 2033.943030 -453.177901
-32.000000 2032.636206 -451.663897
-32.000000 2031.329381 -450.149892
-32.000000 2030.022556 -448.635888
-32.000000 2028.715731 -447.121884
-32.000000 2027.408907 -445.607880
-32.000000 2026.102082 -444.093875
-32.000000 2024.795257 -442.579871
-32.000000 2023.488432 -441.065867
-32.000000 2022.181607 -439.551862
-32.000000 2020.874783 -438.037858
-32.000000 2019.567958 -436.523854
-32.000000 2018.261133 -435.009849
-32.000000 2016.954308 -433.495845
-32.000000 2015.647484 -431.981841
-32.000000 2014.340659 -430.467836
-32.000000 2013.033834 -428.953832
-32.000000 2011.727009 -427.439828
-32.000000 2010.420185 -425.925824
-32.000000 2009.113360 -424.411819
-32.000000 2007.806535 -422.897815
-32.000000 2006.499710 -421.383811
-32.000000 2005.192885 -419.869806
-32.000000 2003.886061 -418.355802
-32.000000 2002.579236 -416.841798
-32.000000 2001.272411 -415.327793
-32.000000 1999.965586 -413.813789
-32.000000 1998.658762 -412.299785
-32.000000 1997.351937 -410.785781
-32.000000 1996.045112 -409.271776
-32.000000 1994.738287 -407.757772
-32.000000 1993.431463 -406.243768
-32.000000 1992.124638 -404.729763
-32.000000 1990.817813 -403.215759
-32.000000 1989.510988 -401.701755
-32.000000 1988.204164 -400.187750
-32.000000 1986.897339 -398.673746
-32.000000 1985.590514 -397.159742
-32.000000 1984.283689 -395.645738
-32.000000 1982.976864 -394.131733
-32.000000 1981.670040 -392.617729
-32.000000 1980.363215 -391.103725
-32.000000 1979.056390 -389.589720
-32.000000 1977.749565 -388.075716
-32.000000 1976.442741 -386.561712
-32.000000 1975.135916 -385.047707
-32.000000 1973.829091 -383.533703
-32.000000 1972.522266 -382.019699
-32.000000 1971.215442 -380.505694
-32.000000 1969.908617 -378.991690
-32.000000 1968.601792 -377.477686
-32.000000 1967.294967 -375.963682
-32.000000 1965.988142 -374.449677
-32.000000 1964.681318 -372.935673
-32.000000 1963.374493 -371.421669
-32.000000 1962.067668 -369.907664
-32.000000 1960.760843 -368.393660
-32.000000 1959.454019 -366.879656
-32.000000 1958.147194 -365.365651
-32.000000 1956.840369 -363.851647
-32.000000 1955.533544 -362.337643
-32.000000 1954.226720 -360.823639
-32.000000 1952.919895 -359.309634
-32.000000 1951.613070 -357.795630
-32.000000 1950.306245 -356.281626
-32.000000 1948.999421 -354.767621
-32.000000 1947.692596 -353.253617
-32.000000 1946.385771 -351.739613
-32.000000 1945.078946 -350.225608
-32.000000 1943.772121 -348.711604
-32.000000 1942.465297 -347.197600
-32.000000 1941.158472 -345.683596
-32.000000 1939.851647 -344.169591
-32.000000 1938.544822 -342.655587
-32.000000 1937.237998 -341.141583
-32.000000 1935.931173 -339.627578
-32.000000 1934.624348 -338.113574
-32.000000 1933.317523 -336.599570
-32.000000 1932.010699 -335.085565
-32.000000 1930.703874 -333.571561
-32.000000 1929.397049 -332.057557
-32.000000 1928.090224 -330.543553
-32.000000 1926.783399 -329.029548
-32.000000 1925.476575 -327.515544
-32.000000 1924.169750 -326.001540
-32.000000 1922.862925 -324.487535
-32.000000 1921.556100 -322.973531
-32.000000 1920.249276 -321.459527
-32.000000 1918.942451 -319.945522
-32.000000 1917.635626 -318.431518
-32.000000 1916.328801 -316.917514
-32.000000 1915.021977 -315.403509
-32.000000 1913.715152 -313.889505
-32.000000 1912.408327 -312.375501
-32.000000 1911.101502 -310.861497
-32.000000 1909.794678 -309.347492
-32.000000 1908.487853 -307.833488
-32.000000 1907.181028 -306.319484
-32.000000 1905.874203 -304.805479
-32.000000 1904.567378 -303.291475
-32.000000 1903.260554 -301.777471
-32.000000 1901.953729 -300.263466
-32.000000 1900.646904 -298.749462
-32.000000 1899.340079 -297.235458
-32.000000 1898.033255 -295.721454
-32.000000 1896.726430 -294.207449
-32.000000 1895.419605 -292.693445
-32.000000 1894.112780 -291.179441
-32.000000 1892.805956 -289.665436
-32.000000 1891.499131 -288.151432
-32.000000 1890.192306 -286.637428
-32.000000 1888.885481 -285.123423
-32.000000 1887.578656 -283.609419
-32.000000 1886.271832 -282.095415
-32.000000 1884.965007 -280.581411
-32.000000 1883.658182 -279.067406
-32.000000 1882.351357 -277.553402
-32.000000 1881.044533 -276.039398
-32.000000 1879.737708 -274.525393
-32.000000 1878.430883 -273.011389
-32.000000 1877.124058 -271.497385
-32.000000 1875.817234 -269.983380
-32.000000 1874.510409 -268.469376
-32.000000 1873.203584 -266.955372
-32.000000 1871.896759 -265.441367
-32.000000 1870.589935 -263.927363
-32.000000 1869.283110 -262.413359
-32.000000 1867.976285 -260.899355
-32.000000 1866.669460 -259.385350
-32.000000 1865.362635 -257.871346
-32.000000 1864.055811 -256.357342
-32.000000 1862.748986 -254.843337
-32.000000 1861.442161 -253.329333
-32.000000 1860.135336 -251.815329
-32.000000 1858.828512 -250.301324
-32.000000 1857.521687 -248.787320
-32.000000 1856.214862 -247.273316
-32.000000 1854.908037 -245.759312
-32.000000 1853.601213 -244.245307
-32.000000 1852.294388 -242.731303
-32.000000 1850.987563 -241.217299
-32.000000 1849.680738 -239.703294
-32.000000 1848.373913 -238.189290
-32.000000 1847.067089 -236.675286
-32.000000 1845.760264 -235.161281
-32.000000 1844.453439 -233.647277
-32.000000 1843.146614 -232.133273
-32.000000 1841.839790 -230.619269
-32.000000 1840.532965 -229.105264
-32.000000 1839.226140 -227.591260
-32.000000 1837.919315 -226.077256
-32.000000 1836.612491 -224.563251
-32.000000 1835.305666 -223.049247
-32.000000 1833.998841 -221.535243
-32.000000 1832.692016 -220.021238
-32.000000 1831.385192 -218.507234
-32.000000 1830.078367 -216.993230
-32.000000 1828.771542 -215.479225
-32.000000 1827.464717 -213.965221
-32.000000 1826.157892 -212.451217
-32.000000 1824.851068 -210.937213
-32.000000 1823.544243 -209.423208
-32.000000 1822.237418 -207.909204
-32.000000 1820.930593 -206.395200
-32.000000 1819.623769 -204.881195
-32.000000 1818.316944 -203.367191
-32.000000 1817.010119 -201.853187
-32.000000 1815.703294 -200.339182
-32.000000 1814.396470 -198.825178
-32.000000 1813.089645 -197.311174
-32.000000 1811.782820 -195.797170
-32.000000 1810.475995 -194.283165
-32.000000 1809.169170 -192.769161
-32.000000 1807.862346 -191.255157
-32.000000 1806.555521 -189.741152
-32.000000 1805.248696 -188.227148
-32.000000 1803.941871 -186.713144
-32.000000 1802.635047 -185.199139
-32.000000 1801.328222 -183.685135
-32.000000 1800.021397 -182.171131
-32.000000 1798.714572 -180.657127
-32.000000 1797.407748 -179.143122
-32.000000 1796.100923 -177.629118
-32.000000 1794.794098 -176.115114
-32.000000 1793.487273 -174.601109
-32.000000 1792.180449 -173.087105
-32.000000 1790.873624 -171.573101
-32.000000 1789.566799 -170.059096
-32.000000 1788.259974 -168.545092
-32.000000 1786.953149 -167.031088
-32.000000 1785.646325 -165.517083
-32.000000 1784.339500 -164.003079
-32.000000 1783.032675 -162.489075
-32.000000 1781.725850 -160.975071
-32.000000 1780.419026 -159.461066
-32.000000 1779.112201 -157.947062
-32.000000 1777.805376 -156.433058
-32.000000 1776.498551 -154.919053
-32.000000 1775.191727 -153.405049
-32.000000 1773.884902 -151.891045
-32.000000 1772.578077 -150.377040
-32.000000 1771.271252 -148.863036
-32.000000 1769.964427 -147.349032
-32.000000 1768.657603 -145.835028
-32.000000 1767.350778 -144.321023
-32.000000 1766.043953 -142.807019
-32.000000 1764.737128 -141.293015
-32.000000 1763.430304 -139.779010
-32.000000 1762.123479 -138.265006
-32.000000 1760.816654 -136.751002
-32.000000 1759.509829 -135.236997
-32.000000 1758.203005 -133.722993
-32.000000 1756.896180 -132.208989
-32.000000 1755.589355 -130.694985
-32.000000 1754.282530 -129.180980
-32.000000 1752.975706 -127.666976
-32.000000 1751.668881 -126.152972
-32.000000 1750.362056 -124.638967
-32.000000 1749.055231 -123.124963
-32.000000 1747.748406 -121.610959
-32.000000 1746.441582 -120.096954
-32.000000 1745.134757 -118.582950
-32.000000 1743.827932 -117.068946
-32.000000 1742.521107 -115.554941
-32.000000 1741.214283 -114.040937
-32.000000 1739.907458 -112.526933
-32.000000 1738.600633 -111.012929
-32.000000 1736.000000 -108.000000
-32.407570 1734.043666 -107.918486
-32.815139 1732.087332 -107.836972
-33.222709 1730.130998 -107.755458
-33.630278 1728.174664 -107.673944
-34.037848 1726.218330 -107.592430
-34.445417 1724.261996 -107.510917
-34.852987 1722.305662 -107.429403
-35.260557 1720.349328 -107.347889
-35.668126 1718.392994 -107.266375
-36.075696 1716.436660 -107.184861
-36.483265 1714.480327 -107.103347
-36.890835 1712.523993 -107.021833
-37.298404 1710.567659 -106.940319
-37.705974 1708.611325 -106.858805
-38.113544 1706.654991 -106.777291
-38.521113 1704.698657 -106.695777
-38.928683 1702.742323 -106.614263
-39.336252 1700.785989 -106.532750
-39.743822 1698.829655 -106.451236
-40.151391 1696.873321 -106.369722
-40.558961 1694.916987 -106.288208
-40.966531 1692.960653 -106.206694
-41.374100 1691.004319 -106.125180
-41.781670 1689.047985 -106.043666
-42.189239 1687.091651 -105.962152
-42.596809 1685.135317 -105.880638
-43.004378 1683.178983 -105.799124
-43.411948 1681.222649 -105.717610
-43.819518 1679.266315 -105.636096
-44.227087 1677.309981 -105.554583
-44.634657 1675.353648 -105.473069
-45.042226 1673.397314 -105.391555
-45.449796 1671.440980 -105.310041
-45.857365 1669.484646 -105.228527
-46.264935 1667.528312 -105.147013
-46.672505 1665.571978 -105.065499
-47.080074 1663.615644 -104.983985
-47.487644 1661.659310 -104.902471
-47.895213 1659.702976 -104.820957
-48.302783 1657.746642 -104.739443
-48.710352 1655.790308 -104.657930
-49.117922 1653.833974 -104.576416
-49.525492 1651.877640 -104.494902
-49.933061 1649.921306 -104.413388
-50.340631 1647.964972 -104.331874
-50.748200 1646.008638 -104.250360
-51.155770 1644.052304 -104.168846
-51.563340 1642.095970 -104.087332
-52.000000 1640.000000 -104.000000
-53.003210 1638.695827 -105.136971
-54.006420 1637.391654 -106.273942
-55.009629 1636.087482 -107.410913
-56.012839 1634.783309 -108.547885
-57.016049 1633.479136 -109.684856
-58.019259 1632.174963 -110.821827
-59.022469 1630.870791 -111.958798
-60.025679 1629.566618 -113.095769
-61.028888 1628.262445 -114.232740
-62.032098 1626.958272 -115.369711
-63.035308 1625.654099 -116.506683
-64.038518 1624.349927 -117.643654
-65.041728 1623.045754 -118.780625
-66.044938 1621.741581 -119.917596
-67.048147 1620.437408 -121.054567
-68.051357 1619.133235 -122.191538
-69.054567 1617.829063 -123.328509
-70.057777 1616.524890 -124.465481
-71.060987 1615.220717 -125.602452
-72.064197 1613.916544 -126.739423
-73.067406 1612.612372 -127.876394
-74.070616 1611.308199 -129.013365
-75.073826 1610.004026 -130.150336
-76.077036 1608.699853 -131.287307
-77.080246 1607.395680 -132.424279
-78.083456 1606.091508 -133.561250
-79.086665 1604.787335 -134.698221
-80.089875 1603.483162 -135.835192
-81.093085 1602.178989 -136.972163
-82.096295 1600.874817 -138.109134
-83.099505 1599.570644 -139.246105
-84.102715 1598.266471 -140.383077
-85.105924 1596.962298 -141.520048
-86.109134 1595.658125 -142.657019
-87.112344 1594.353953 -143.793990
-88.115554 1593.049780 -144.930961
-89.118764 1591.745607 -146.067932
-90.121974 1590.441434 -147.204903
-91.125183 1589.137261 -148.341875
-92.128393 1587.833089 -149.478846
-93.131603 1586.528916 -150.615817
-94.134813 1585.224743 -151.752788
-95.138023 1583.920570 -152.889759
-96.141233 1582.616398 -154.026730
-97.144442 1581.312225 -155.163701
-98.147652 1580.008052 -156.300673
-99.150862 1578.703879 -157.437644
-100.154072 1577.399706 -158.574615
-101.157282 1576.095534 -159.711586
-102.160492 1574.791361 -160.848557
-103.163701 1573.487188 -161.985528
-104.166911 1572.183015 -163.122499
-105.170121 1570.878842 -164.259471
-106.173331 1569.574670 -165.396442
-107.176541 1568.270497 -166.533413
-108.179751 1566.966324 -167.670384
-109.182960 1565.662151 -168.807355
-110.186170 1564.357979 -169.944326
-111.189380 1563.053806 -171.081298
-112.192590 1561.749633 -172.218269
-113.195800 1560.445460 -173.355240
-114.199010 1559.141287 -174.492211
-115.202219 1557.837115 -175.629182
-116.205429 1556.532942 -176.766153
-117.208639 1555.228769 -177.903124
-118.211849 1553.924596 -179.040096
-119.215059 1552.620424 -180.177067
-120.218269 1551.316251 -181.314038
-121.221478 1550.012078 -182.451009
-122.224688 1548.707905 -183.587980
-123.227898 1547.403732 -184.724951
-124.231108 1546.099560 -185.861922
-125.234318 1544.795387 -186.998894
-126.237528 1543.491214 -188.135865
-127.240737 1542.187041 -189.272836
-128.243947 1540.882868 -190.409807
-129.247157 1539.578696 -191.546778
-130.250367 1538.274523 -192.683749
-131.253577 1536.970350 -193.820720
-132.256787 1535.666177 -194.957692
-133.259996 1534.362005 -196.094663
-134.263206 1533.057832 -197.231634
-135.266416 1531.753659 -198.368605
-136.269626 1530.449486 -199.505576
-137.272836 1529.145313 -200.642547
-138.276046 1527.841141 -201.779518
-139.279255 1526.536968 -202.916490
-140.282465 1525.232795 -204.053461
-141.285675 1523.928622 -205.190432
-142.288885 1522.624450 -206.327403
-143.292095 1521.320277 -207.464374
-144.295305 1520.016104 -208.601345
-145.298514 1518.711931 -209.738316
-146.301724 1517.407758 -210.875288
-147.304934 1516.103586 -212.012259
-148.308144 1514.799413 -213.149230
-149.311354 1513.495240 -214.286201
-150.314564 1512.191067 -215.423172
-151.317773 1510.886894 -216.560143
-152.320983 1509.582722 -217.697114
-153.324193 1508.278549 -218.834086
-154.327403 1506.974376 -219.971057
-155.330613 1505.670203 -221.108028
-156.333823 1504.366031 -222.244999
-157.337032 1503.061858 -223.381970
-158.340242 1501.757685 -224.518941
-159.343452 1500.453512 -225.655912
-160.346662 1499.149339 -226.792884
-161.349872 1497.845167 -227.929855
-162.353082 1496.540994 -229.066826
-163.356291 1495.236821 -230.203797
-164.359501 1493.932648 -231.340768
-165.362711 1492.628476 -232.477739
-166.365921 1491.324303 -233.614710
-167.369131 1490.020130 -234.751682
-168.372341 1488.715957 -235.888653
-169.375550 1487.411784 -237.025624
-170.378760 1486.107612 -238.162595
-171.381970 1484.803439 -239.299566
-172.385180 1483.499266 -240.436537
-173.388390 1482.195093 -241.573508
-174.391600 1480.890920 -242.710480
-175.394809 1479.586748 -243.847451
-176.398019 1478.282575 -244.984422
-177.401229 1476.978402 -246.121393
-178.404439 1475.674229 -247.258364
-179.407649 1474.370057 -248.395335
-180.410859 1473.065884 -249.532306
-181.414068 1471.761711 -250.669278
-182.417278 1470.457538 -251.806249
-183.420488 1469.153365 -252.943220
-184.423698 1467.849193 -254.080191
-185.426908 1466.545020 -255.217162
-186.430118 1465.240847 -256.354133
-187.433327 1463.936674 -257.491104
-188.436537 1462.632502 -258.628076
-189.439747 1461.328329 -259.765047
-190.442957 1460.024156 -260.902018
-191.446167 1458.719983 -262.038989
-192.449377 1457.415810 -263.175960
-193.452586 1456.111638 -264.312931
-194.455796 1454.807465 -265.449902
-195.459006 1453.503292 -266.586874
-196.462216 1452.199119 -267.723845
-197.465426 1450.894946 -268.860816
-198.468636 1449.590774 -269.997787
-199.471845 1448.286601 -271.134758
-200.475055 1446.982428 -272.271729
-201.478265 1445.678255 -273.408700
-202.481475 1444.374083 -274.545672
-203.484685 1443.069910 -275.682643
-204.487895 1441.765737 -276.819614
-205.491104 1440.461564 -277.956585
-206.494314 1439.157391 -279.093556
-207.497524 1437.853219 -280.230527
-208.500734 1436.549046 -281.367498
-209.503944 1435.244873 -282.504470
-210.507154 1433.940700 -283.641441
-211.510363 1432.636527 -284.778412
-212.513573 1431.332355 -285.915383
-213.516783 1430.028182 -287.052354
-214.519993 1428.724009 -288.189325
-215.523203 1427.419836 -289.326297
-216.526413 1426.115664 -290.463268
-217.529622 1424.811491 -291.600239
-218.532832 1423.507318 -292.737210
-219.536042 1422.203145 -293.874181
-220.539252 1420.898972 -295.011152
-221.542462 1419.594800 -296.148123
-222.545672 1418.290627 -297.285095
-223.548881 1416.986454 -298.422066
-224.552091 1415.682281 -299.559037
-225.555301 1414.378109 -300.696008
-226.558511 1413.073936 -301.832979
-227.561721 1411.769763 -302.969950
-228.564931 1410.465590 -304.106921
-229.568140 1409.161417 -305.243893
-230.571350 1407.857245 -306.380864
-231.574560 1406.553072 -307.517835
-232.577770 1405.248899 -308.654806
-233.580980 1403.944726 -309.791777
-234.584190 1402.640553 -310.928748
-235.587399 1401.336381 -312.065719
-236.590609 1400.032208 -313.202691
-237.593819 1398.728035 -314.339662
-238.597029 1397.423862 -315.476633
-239.600239 1396.119690 -316.613604
-240.603449 1394.815517 -317.750575
-241.606658 1393.511344 -318.887546
-242.609868 1392.207171 -320.024517
-243.613078 1390.902998 -321.161489
-244.616288 1389.598826 -322.298460
-245.619498 1388.294653 -323.435431
-246.622708 1386.990480 -324.572402
-247.625917 1385.686307 -325.709373
-248.629127 1384.382135 -326.846344
-249.632337 1383.077962 -327.983315
-250.635547 1381.773789 -329.120287
-251.638757 1380.469616 -330.257258
-252.641967 1379.165443 -331.394229
-253.645176 1377.861271 -332.531200
-254.648386 1376.557098 -333.668171
-255.651596 1375.252925 -334.805142
-256.654806 1373.948752 -335.942113
-257.658016 1372.644579 -337.079085
-258.661226 1371.340407 -338.216056
-259.664435 1370.036234 -339.353027
-260.667645 1368.732061 -340.489998
-261.670855 1367.427888 -341.626969
-262.674065 1366.123716 -342.763940
-263.677275 1364.819543 -343.900911
-264.680485 1363.515370 -345.037883
-265.683694 1362.211197 -346.174854
-266.686904 1360.907024 -347.311825
-267.690114 1359.602852 -348.448796
-268.693324 1358.298679 -349.585767
-269.696534 1356.994506 -350.722738
-270.699744 1355.690333 -351.859709
-271.702953 1354.386161 -352.996681
-272.706163 1353.081988 -354.133652
-273.709373 1351.777815 -355.270623
-274.712583 1350.473642 -356.407594
-275.715793 1349.169469 -357.544565
-276.719003 1347.865297 -358.681536
-277.722212 1346.561124 -359.818507
-278.725422 1345.256951 -360.955479
-279.728632 1343.952778 -362.092450
-280.731842 1342.648605 -363.229421
-281.735052 1341.344433 -364.366392
-282.738262 1340.040260 -365.503363
-283.741471 1338.736087 -366.640334
-284.744681 1337.431914 -367.777305
-285.747891 1336.127742 -368.914277
-286.751101 1334.823569 -370.051248
-287.754311 1333.519396 -371.188219
-288.757521 1332.215223 -372.325190
-289.760730 1330.911050 -373.462161
-290.763940 1329.606878 -374.599132
-292.000000 1328.000000 -376.000000
-293.531374 1326.979084 -376.782702
-295.062749 1325.958168 -377.565405
-296.594123 1324.937251 -378.348107
-298.125497 1323.916335 -379.130810
-299.656871 1322.895419 -379.913512
-301.188246 1321.874503 -380.696214
-302.719620 1320.853587 -381.478917
-304.250994 1319.832671 -382.261619
-305.782368 1318.811754 -383.044322
-307.313743 1317.790838 -383.827024
-308.845117 1316.769922 -384.609726
-310.376491 1315.749006 -385.392429
-311.907865 1314.728090 -386.175131
-313.439240 1313.707174 -386.957834
-314.970614 1312.686257 -387.740536
-316.501988 1311.665341 -388.523238
-318.033362 1310.644425 -389.305941
-319.564737 1309.623509 -390.088643
-321.096111 1308.602593 -390.871346
-322.627485 1307.581677 -391.654048
-324.158859 1306.560760 -392.436750
-325.690234 1305.539844 -393.219453
-327.221608 1304.518928 -394.002155
-328.752982 1303.498012 -394.784858
-330.284356 1302.477096 -395.567560
-331.815731 1301.456180 -396.350262
-333.347105 1300.435263 -397.132965
-334.878479 1299.414347 -397.915667
-336.409854 1298.393431 -398.698370
-337.941228 1297.372515 -399.481072
-339.472602 1296.351599 -400.263774
-341.003976 1295.330682 -401.046477
-342.535351 1294.309766 -401.829179
-344.066725 1293.288850 -402.611882
-345.598099 1292.267934 -403.394584
-347.129473 1291.247018 -404.177286
-348.660848 1290.226102 -404.959989
-350.192222 1289.205185 -405.742691
-351.723596 1288.184269 -406.525394
-353.254970 1287.163353 -407.308096
-354.786345 1286.142437 -408.090798
-356.317719 1285.121521 -408.873501
-357.849093 1284.100605 -409.656203
-359.380467 1283.079688 -410.438906
-360.911842 1282.058772 -411.221608
-362.443216 1281.037856 -412.004310
-363.974590 1280.016940 -412.787013
-365.505964 1278.996024 -413.569715
-367.037339 1277.975108 -414.352418
-368.568713 1276.954191 -415.135120
-370.100087 1275.933275 -415.917822
-371.631461 1274.912359 -416.700525
-373.162836 1273.891443 -417.483227
-374.694210 1272.870527 -418.265930
-376.225584 1271.849610 -419.048632
-377.756959 1270.828694 -419.831334
-379.288333 1269.807778 -420.614037
-380.819707 1268.786862 -421.396739
-382.351081 1267.765946 -422.179442
-383.882456 1266.745030 -422.962144
-385.413830 1265.724113 -423.744846
-386.945204 1264.703197 -424.527549
-388.476578 1263.682281 -425.310251
-390.007953 1262.661365 -426.092954
-391.539327 1261.640449 -426.875656
-393.070701 1260.619533 -427.658358
-394.602075 1259.598616 -428.441061
-396.133450 1258.577700 -429.223763
-397.664824 1257.556784 -430.006466
-399.196198 1256.535868 -430.789168
-400.727572 1255.514952 -431.571870
-402.258947 1254.494036 -432.354573
-403.790321 1253.473119 -433.137275
-405.321695 1252.452203 -433.919978
-406.853069 1251.431287 -434.702680
-408.384444 1250.410371 -435.485382
-409.915818 1249.389455 -436.268085
-411.447192 1248.368539 -437.050787
-412.978566 1247.347622 -437.833490
-414.509941 1246.326706 -438.616192
-416.041315 1245.305790 -439.398894
-417.572689 1244.284874 -440.181597
-419.104064 1243.263958 -440.964299
-420.635438 1242.243041 -441.747002
-422.166812 1241.222125 -442.529704
-423.698186 1240.201209 -443.312406
-425.229561 1239.180293 -444.095109
-426.760935 1238.159377 -444.877811
-428.292309 1237.138461 -445.660514
-429.823683 1236.117544 -446.443216
-431.355058 1235.096628 -447.225918
-432.886432 1234.075712 -448.008621
-434.417806 1233.054796 -448.791323
-435.949180 1232.033880 -449.574026
-437.480555 1231.012964 -450.356728
-439.011929 1229.992047 -451.139430
-440.543303 1228.971131 -451.922133
-442.074677 1227.950215 -452.704835
-443.606052 1226.929299 -453.487538
-445.137426 1225.908383 -454.270240
-446.668800 1224.887467 -455.052942
-448.200174 1223.866550 -455.835645
-449.731549 1222.845634 -456.618347
-451.262923 1221.824718 -457.401050
-452.794297 1220.803802 -458.183752
-454.325671 1219.782886 -458.966454
-455.857046 1218.761970 -459.749157
-457.388420 1217.741053 -460.531859
-458.919794 1216.720137 -461.314562
-460.451169 1215.699221 -462.097264
-461.982543 1214.678305 -462.879966
-463.513917 1213.657389 -463.662669
-465.045291 1212.636472 -464.445371
-466.576666 1211.615556 -465.228074
-468.108040 1210.594640 -466.010776
-469.639414 1209.573724 -466.793478
-471.170788 1208.552808 -467.576181
-472.702163 1207.531892 -468.358883
-474.233537 1206.510975 -469.141586
-475.764911 1205.490059 -469.924288
-477.296285 1204.469143 -470.706990
-478.827660 1203.448227 -471.489693
-480.359034 1202.427311 -472.272395
-481.890408 1201.406395 -473.055098
-483.421782 1200.385478 -473.837800
-484.953157 1199.364562 -474.620502
-486.484531 1198.343646 -475.403205
-488.015905 1197.322730 -476.185907
-489.547279 1196.301814 -476.968609
-491.078654 1195.280898 -477.751312
-492.610028 1194.259981 -478.534014
-494.141402 1193.239065 -479.316717
-495.672776 1192.218149 -480.099419
-497.204151 1191.197233 -480.882121
-498.735525 1190.176317 -481.664824
-500.266899 1189.155400 -482.447526
-501.798274 1188.134484 -483.230229
-503.329648 1187.113568 -484.012931
-504.861022 1186.092652 -484.795633
-506.392396 1185.071736 -485.578336
-507.923771 1184.050820 -486.361038
-509.455145 1183.029903 -487.143741
-510.986519 1182.008987 -487.926443
-512.517893 1180.988071 -488.709145
-514.049268 1179.967155 -489.491848
-515.580642 1178.946239 -490.274550
-517.112016 1177.925323 -491.057253
-518.643390 1176.904406 -491.839955
-520.174765 1175.883490 -492.622657
-521.706139 1174.862574 -493.405360
-523.237513 1173.841658 -494.188062
-524.768887 1172.820742 -494.970765
-526.300262 1171.799826 -495.753467
-527.831636 1170.778909 -496.536169
-529.363010 1169.757993 -497.318872
-530.894384 1168.737077 -498.101574
-532.425759 1167.716161 -498.884277
-533.957133 1166.695245 -499.666979
-535.488507 1165.674329 -500.449681
-537.019881 1164.653412 -501.232384
-538.551256 1163.632496 -502.015086
-540.082630 1162.611580 -502.797789
-541.614004 1161.590664 -503.580491
-543.145379 1160.569748 -504.363193
-544.676753 1159.548831 -505.145896
-546.208127 1158.527915 -505.928598
-547.739501 1157.506999 -506.711301
-549.270876 1156.486083 -507.494003
-550.802250 1155.465167 -508.276705
-552.333624 1154.444251 -509.059408
-553.864998 1153.423334 -509.842110
-555.396373 1152.402418 -510.624813
-556.927747 1151.381502 -511.407515
-558.459121 1150.360586 -512.190217
-559.990495 1149.339670 -512.972920
-561.521870 1148.318754 -513.755622
-563.053244 1147.297837 -514.538325
-564.584618 1146.276921 -515.321027
-566.115992 1145.256005 -516.103729
-567.647367 1144.235089 -516.886432
-569.178741 1143.214173 -517.669134
-570.710115 1142.193257 -518.451837
-572.241489 1141.172340 -519.234539
-573.772864 1140.151424 -520.017241
-575.304238 1139.130508 -520.799944
-576.835612 1138.109592 -521.582646
-578.366986 1137.088676 -522.365349
-579.898361 1136.067759 -523.148051
-581.429735 1135.046843 -523.930753
-582.961109 1134.025927 -524.713456
-584.492484 1133.005011 -525.496158
-586.023858 1131.984095 -526.278861
-587.555232 1130.963179 -527.061563
-589.086606 1129.942262 -527.844265
-590.617981 1128.921346 -528.626968
-592.149355 1127.900430 -529.409670
-593.680729 1126.879514 -530.192373
-595.212103 1125.858598 -530.975075
-596.743478 1124.837682 -531.757777
-598.274852 1123.816765 -532.540480
-599.806226 1122.795849 -533.323182
-601.337600 1121.774933 -534.105885
-602.868975 1120.754017 -534.888587
-604.400349 1119.733101 -535.671289
-605.931723 1118.712185 -536.453992
-607.463097 1117.691268 -537.236694
-608.994472 1116.670352 -538.019397
-610.525846 1115.649436 -538.802099
-612.057220 1114.628520 -539.584801
-613.588594 1113.607604 -540.367504
-615.119969 1112.586688 -541.150206
-616.651343 1111.565771 -541.932909
-618.182717 1110.544855 -542.715611
-619.714091 1109.523939 -543.498313
-621.245466 1108.503023 -544.281016
-622.776840 1107.482107 -545.063718
-624.308214 1106.461190 -545.846421
-625.839589 1105.440274 -546.629123
-627.370963 1104.419358 -547.411825
-628.902337 1103.398442 -548.194528
-630.433711 1102.377526 -548.977230
-631.965086 1101.356610 -549.759933
-633.496460 1100.335693 -550.542635
-635.027834 1099.314777 -551.325337
-636.559208 1098.293861 -552.108040
-638.090583 1097.272945 -552.890742
-639.621957 1096.252029 -553.673445
-641.153331 1095.231113 -554.456147
-642.684705 1094.210196 -555.238849
-644.216080 1093.189280 -556.021552
-645.747454 1092.168364 -556.804254
-647.278828 1091.147448 -557.586957
-648.810202 1090.126532 -558.369659
-650.341577 1089.105616 -559.152361
-652.000000 1088.000000 -560.000000
-652.000000 1086.090453 -559.405331
-652.000000 1084.180906 -558.810663
-652.000000 1082.271359 -558.215994
-652.000000 1080.361812 -557.621326
-652.000000 1078.452266 -557.026657
-652.000000 1076.542719 -556.431989
-652.000000 1074.633172 -555.837320
-652.000000 1072.723625 -555.242651
-652.000000 1070.814078 -554.647983
-652.000000 1068.904531 -554.053314
-652.000000 1066.994984 -553.458646
-652.000000 1065.085437 -552.863977
-652.000000 1063.175891 -552.269308
-652.000000 1061.266344 -551.674640
-652.000000 1059.356797 -551.079971
-652.000000 1057.447250 -550.485303
-652.000000 1055.537703 -549.890634
-652.000000 1053.628156 -549.295966
-652.000000 1051.718609 -548.701297
-652.000000 1049.809062 -548.106628
-652.000000 1047.899516 -547.511960
-652.000000 1045.989969 -546.917291
-652.000000 1044.080422 -546.322623
-652.000000 1042.170875 -545.727954
-652.000000 1040.261328 -545.133286
-652.000000 1038.351781 -544.538617
-652.000000 1036.442234 -543.943948
-652.000000 1034.532687 -543.349280
-652.000000 1032.623141 -542.754611
-652.000000 1030.713594 -542.159943
-652.000000 1028.804047 -541.565274
-652.000000 1026.894500 -540.970605
-652.000000 1024.984953 -540.375937
-652.000000 1023.075406 -539.781268
-652.000000 1021.165859 -539.186600
-652.000000 1019.256312 -538.591931
-652.000000 1017.346765 -537.997263
-652.000000 1015.437219 -537.402594
-652.000000 1013.527672 -536.807925
-652.000000 1011.618125 -536.213257
-652.000000 1009.708578 -535.618588
-652.000000 1007.799031 -535.023920
-652.000000 1005.889484 -534.429251
-652.000000 1003.979937 -533.834583
-652.000000 1002.070390 -533.239914
-652.000000 1000.160844 -532.645245
-652.000000 998.251297 -532.050577
-652.000000 996.341750 -531.455908
-652.000000 994.432203 -530.861240
-652.000000 992.522656 -530.266571
-652.000000 990.613109 -529.671903
-652.000000 988.703562 -529.077234
-652.000000 986.794015 -528.482565
-652.000000 984.884469 -527.887897
-652.000000 982.974922 -527.293228
-652.000000 981.065375 -526.698560
-652.000000 979.155828 -526.103891
-652.000000 977.246281 -525.509222
-652.000000 975.336734 -524.914554
-652.000000 973.427187 -524.319885
-652.000000 971.517640 -523.725217
-652.000000 969.608094 -523.130548
-652.000000 967.698547 -522.535880
-652.000000 965.789000 -521.941211
-652.000000 963.879453 -521.346542
-652.000000 961.969906 -520.751874
-652.000000 960.060359 -520.157205
-652.000000 958.150812 -519.562537
-652.000000 956.241265 -518.967868
-652.000000 954.331718 -518.373200
-652.000000 952.422172 -517.778531
-652.000000 950.512625 -517.183862
-652.000000 948.603078 -516.589194
-652.000000 946.693531 -515.994525
-652.000000 944.783984 -515.399857
-652.000000 942.874437 -514.805188
-652.000000 940.964890 -514.210519
-652.000000 939.055343 -513.615851
-652.000000 937.145797 -513.021182
-652.000000 935.236250 -512.426514
-652.000000 933.326703 -511.831845
-652.000000 931.417156 -511.237177
-652.000000 929.507609 -510.642508
-652.000000 927.598062 -510.047839
-652.000000 925.688515 -509.453171
-652.000000 923.778968 -508.858502
-652.000000 921.869422 -508.263834
-652.000000 919.959875 -507.669165
-652.000000 918.050328 -507.074497
-652.000000 916.140781 -506.479828
-652.000000 914.231234 -505.885159
-652.000000 912.321687 -505.290491
-652.000000 910.412140 -504.695822
-652.000000 908.502593 -504.101154
-652.000000 906.593047 -503.506485
-652.000000 904.683500 -502.911816
-652.000000 902.773953 -502.317148
-652.000000 900.864406 -501.722479
-652.000000 898.954859 -501.127811
-652.000000 897.045312 -500.533142
-652.000000 895.135765 -499.938474
-652.000000 893.226218 -499.343805
-652.000000 891.316671 -498.749136
-652.000000 889.407125 -498.154468
-652.000000 887.497578 -497.559799
-652.000000 885.588031 -496.965131
-652.000000 883.678484 -496.370462
-652.000000 881.768937 -495.775794
-652.000000 879.859390 -495.181125
-652.000000 877.949843 -494.586456
-652.000000 876.040296 -493.991788
-652.000000 874.130750 -493.397119
-652.000000 872.221203 -492.802451
-652.000000 870.311656 -492.207782
-652.000000 868.402109 -491.613114
-652.000000 866.492562 -491.018445
-652.000000 864.583015 -490.423776
-652.000000 862.673468 -489.829108
-652.000000 860.763921 -489.234439
-652.000000 858.854375 -488.639771
-652.000000 856.944828 -488.045102
-652.000000 855.035281 -487.450433
-652.000000 853.125734 -486.855765
-652.000000 851.216187 -486.261096
-652.000000 849.306640 -485.666428
-652.000000 847.397093 -485.071759
-652.000000 845.487546 -484.477091
-652.000000 843.578000 -483.882422
-652.000000 841.668453 -483.287753
-652.000000 839.758906 -482.693085
-652.000000 837.849359 -482.098416
-652.000000 835.939812 -481.503748
-652.000000 834.030265 -480.909079
-652.000000 832.120718 -480.314411
-652.000000 830.211171 -479.719742
-652.000000 828.301624 -479.125073
-652.000000 826.392078 -478.530405
-652.000000 824.482531 -477.935736
-652.000000 822.572984 -477.341068
-652.000000 820.663437 -476.746399
-652.000000 818.753890 -476.151730
-652.000000 816.844343 -475.557062
-652.000000 814.934796 -474.962393
-652.000000 813.025249 -474.367725
-652.000000 811.115703 -473.773056
-652.000000 809.206156 -473.178388
-652.000000 807.296609 -472.583719
-652.000000 805.387062 -471.989050
-652.000000 803.477515 -471.394382
-652.000000 801.567968 -470.799713
-652.000000 799.658421 -470.205045
-652.000000 797.748874 -469.610376
-652.000000 795.839328 -469.015708
-652.000000 793.929781 -468.421039
-652.000000 792.020234 -467.826370
-652.000000 790.110687 -467.231702
-652.000000 788.201140 -466.637033
-652.000000 786.291593 -466.042365
-652.000000 784.382046 -465.447696
-652.000000 782.472499 -464.853027
-652.000000 780.562953 -464.258359
-652.000000 778.653406 -463.663690
-652.000000 776.743859 -463.069022
-652.000000 774.834312 -462.474353
-652.000000 772.924765 -461.879685
-652.000000 771.015218 -461.285016
-652.000000 769.105671 -460.690347
-652.000000 767.196124 -460.095679
-652.000000 765.286577 -459.501010
-652.000000 763.377031 -458.906342
-652.000000 761.467484 -458.311673
-652.000000 759.557937 -457.717005
-652.000000 757.648390 -457.122336
-652.000000 755.738843 -456.527667
-652.000000 753.829296 -455.932999
-652.000000 751.919749 -455.338330
-652.000000 750.010202 -454.743662
-652.000000 748.100656 -454.148993
-652.000000 746.191109 -453.554325
-652.000000 744.281562 -452.959656
-652.000000 742.372015 -452.364987
-652.000000 740.462468 -451.770319
-652.000000 738.552921 -451.175650
-652.000000 736.643374 -450.580982
-652.000000 734.733827 -449.986313
-652.000000 732.824281 -449.391644
-652.000000 730.914734 -448.796976
-652.000000 729.005187 -448.202307
-652.000000 727.095640 -447.607639
-652.000000 725.186093 -447.012970
-652.000000 723.276546 -446.418302
-652.000000 721.366999 -445.823633
-652.000000 719.457452 -445.228964
-652.000000 717.547906 -444.634296
-652.000000 715.638359 -444.039627
-652.000000 713.728812 -443.444959
-652.000000 711.819265 -442.850290
-652.000000 709.909718 -442.255622
-652.000000 708.000171 -441.660953
-652.000000 706.090624 -441.066284
-652.000000 704.181077 -440.471616
-652.000000 702.271530 -439.876947
-652.000000 700.361984 -439.282279
-652.000000 698.452437 -438.687610
-652.000000 696.542890 -438.092941
-652.000000 694.633343 -437.498273
-652.000000 692.723796 -436.903604
-652.000000 690.814249 -436.308936
-652.000000 688.904702 -435.714267
-652.000000 686.995155 -435.119599
-652.000000 685.085609 -434.524930
-652.000000 683.176062 -433.930261
-652.000000 681.266515 -433.335593
-652.000000 679.356968 -432.740924
-652.000000 677.447421 -432.146256
-652.000000 675.537874 -431.551587
-652.000000 673.628327 -430.956919
-652.000000 671.718780 -430.362250
-652.000000 669.809234 -429.767581
-652.000000 667.899687 -429.172913
-652.000000 665.990140 -428.578244
-652.000000 664.080593 -427.983576
-652.000000 662.171046 -427.388907
-652.000000 660.261499 -426.794238
-652.000000 658.351952 -426.199570
-652.000000 656.442405 -425.604901
-652.000000 654.532859 -425.010233
-652.000000 652.623312 -424.415564
-652.000000 650.713765 -423.820896
-652.000000 648.804218 -423.226227
-652.000000 646.894671 -422.631558
-652.000000 644.985124 -422.036890
-652.000000 643.075577 -421.442221
-652.000000 641.166030 -420.847553
-652.000000 639.256483 -420.252884
-652.000000 637.346937 -419.658216
-652.000000 635.437390 -419.063547
-652.000000 633.527843 -418.468878
-652.000000 631.618296 -417.874210
-652.000000 629.708749 -417.279541
-652.000000 627.799202 -416.684873
-652.000000 625.889655 -416.090204
-652.000000 623.980108 -415.495536
-652.000000 622.070562 -414.900867
-652.000000 620.161015 -414.306198
-652.000000 618.251468 -413.711530
-652.000000 616.341921 -413.116861
-652.000000 614.432374 -412.522193
-652.000000 612.522827 -411.927524
-652.000000 610.613280 -411.332855
-652.000000 608.703733 -410.738187
-652.000000 606.794187 -410.143518
-652.000000 604.884640 -409.548850
-652.000000 602.975093 -408.954181
-652.000000 601.065546 -408.359513
-652.000000 599.155999 -407.764844
-652.000000 597.246452 -407.170175
-652.000000 595.336905 -406.575507
-652.000000 593.427358 -405.980838
-652.000000 591.517812 -405.386170
-652.000000 589.608265 -404.791501
-652.000000 587.698718 -404.196833
-652.000000 585.789171 -403.602164
-652.000000 583.879624 -403.007495
-652.000000 581.970077 -402.412827
-652.000000 580.060530 -401.818158
-652.000000 578.150983 -401.223490
-652.000000 576.241436 -400.628821
-652.000000 574.331890 -400.034152
-652.000000 572.422343 -399.439484
-652.000000 570.512796 -398.844815
-652.000000 568.603249 -398.250147
-652.000000 566.693702 -397.655478
-652.000000 564.784155 -397.060810
-652.000000 562.874608 -396.466141
-652.000000 560.965061 -395.871472
-652.000000 559.055515 -395.276804
-652.000000 557.145968 -394.682135
-652.000000 555.236421 -394.087467
-652.000000 553.326874 -393.492798
-652.000000 551.417327 -392.898130
-652.000000 549.507780 -392.303461
-652.000000 547.598233 -391.708792
-652.000000 545.688686 -391.114124
-652.000000 543.779140 -390.519455
-652.000000 541.869593 -389.924787
-652.000000 539.960046 -389.330118
-652.000000 538.050499 -388.735449
-652.000000 536.140952 -388.140781
-652.000000 534.231405 -387.546112
-652.000000 532.321858 -386.951444
-652.000000 530.412311 -386.356775
-652.000000 528.502765 -385.762107
-652.000000 526.593218 -385.167438
-652.000000 524.683671 -384.572769
-652.000000 522.774124 -383.978101
-652.000000 520.864577 -383.383432
-652.000000 518.955030 -382.788764
-652.000000 517.045483 -382.194095
-652.000000 515.135936 -381.599427
-652.000000 513.226389 -381.004758
-652.000000 510.000000 -380.000000
-652.000000 508.000000 -380.000000
-652.000000 506.000000 -380.000000
-652.000000 504.000000 -380.000000
-652.000000 502.000000 -380.000000
-652.000000 500.000000 -380.000000
-652.000000 498.000000 -380.000000
-652.000000 496.000000 -380.000000
-652.000000 494.000000 -380.000000
-652.000000 492.000000 -380.000000
-652.000000 490.000000 -380.000000
-652.000000 488.000000 -380.000000
-652.000000 486.000000 -380.000000
-652.000000 484.000000 -380.000000
-652.000000 482.000000 -380.000000
-652.000000 480.000000 -380.000000
-652.000000 478.000000 -380.000000
-652.000000 476.000000 -380.000000
-652.000000 474.000000 -380.000000
-652.000000 472.000000 -380.000000
-652.000000 470.000000 -380.000000
-652.000000 468.000000 -380.000000
-652.000000 466.000000 -380.000000
-652.000000 464.000000 -380.000000
-652.000000 462.000000 -380.000000
-652.000000 460.000000 -380.000000
-652.000000 458.000000 -380.000000
-652.000000 456.000000 -380.000000
-652.000000 454.000000 -380.000000
-652.000000 452.000000 -380.000000
-652.000000 450.000000 -380.000000
-652.000000 448.000000 -380.000000
-652.000000 446.000000 -380.000000
-652.000000 444.000000 -380.000000
-652.000000 442.000000 -380.000000
-652.000000 440.000000 -380.000000
-652.000000 438.000000 -380.000000
-652.000000 436.000000 -380.000000
-652.000000 434.000000 -380.000000
-652.000000 432.000000 -380.000000
-652.000000 430.000000 -380.000000
-652.000000 428.000000 -380.000000
-652.000000 426.000000 -380.000000
-652.000000 424.000000 -380.000000
-652.000000 422.000000 -380.000000
-652.000000 420.000000 -380.000000
-652.000000 418.000000 -380.000000
-652.000000 416.000000 -380.000000
-652.000000 414.000000 -380.000000
-652.000000 412.000000 -380.000000
-652.000000 410.000000 -380.000000
-652.000000 408.000000 -380.000000
-652.000000 406.000000 -380.000000
-652.000000 404.000000 -380.000000
-652.000000 402.000000 -380.000000
-652.000000 400.000000 -380.000000
-652.000000 398.000000 -380.000000
-652.000000 396.000000 -380.000000
-652.000000 394.000000 -380.000000
-652.000000 392.000000 -380.000000
-652.000000 390.000000 -380.000000
-652.000000 388.000000 -380.000000
-652.000000 386.000000 -380.000000
-652.000000 384.000000 -380.000000
-652.000000 382.000000 -380.000000
-652.000000 380.000000 -380.000000
-652.000000 378.000000 -380.000000
-652.000000 376.000000 -380.000000
-652.000000 374.000000 -380.000000
-652.000000 372.000000 -380.000000
-652.000000 370.000000 -380.000000
-652.000000 368.000000 -380.000000
-652.000000 366.000000 -380.000000
-652.000000 364.000000 -380.000000
-652.000000 362.000000 -380.000000
-652.000000 360.000000 -380.000000
-652.000000 358.000000 -380.000000
-652.000000 356.000000 -380.000000
-652.000000 354.000000 -380.000000
-652.000000 352.000000 -380.000000
-652.000000 350.000000 -380.000000
-652.000000 348.000000 -380.000000
-652.000000 346.000000 -380.000000
-652.000000 344.000000 -380.000000
-652.000000 342.000000 -380.000000
-652.000000 340.000000 -380.000000
-652.000000 338.000000 -380.000000
-652.000000 336.000000 -380.000000
-652.000000 334.000000 -380.000000
-652.000000 332.000000 -380.000000
-652.000000 330.000000 -380.000000
-652.000000 328.000000 -380.000000
-652.000000 326.000000 -380.000000
-652.000000 324.000000 -380.000000
-652.000000 322.000000 -380.000000
-652.000000 320.000000 -380.000000
-652.000000 318.000000 -380.000000
-652.000000 316.000000 -380.000000
-652.000000 314.000000 -380.000000
-652.000000 312.000000 -380.000000
-652.000000 310.000000 -380.000000
-652.000000 308.000000 -380.000000
-652.000000 306.000000 -380.000000
-652.000000 304.000000 -380.000000
-652.000000 302.000000 -380.000000
-652.000000 300.000000 -380.000000
-652.000000 298.000000 -380.000000
-652.000000 296.000000 -380.000000
-652.000000 294.000000 -380.000000
-652.000000 292.000000 -380.000000
-652.000000 290.000000 -380.000000
-652.000000 288.000000 -380.000000
-652.000000 286.000000 -380.000000
-652.000000 284.000000 -380.000000
-652.000000 282.000000 -380.000000
-652.000000 280.000000 -380.000000
-652.000000 278.000000 -380.000000
-652.000000 276.000000 -380.000000
-652.000000 272.000000 -380.000000
-650.088442 271.411828 -380.000000
-648.176884 270.823657 -380.000000
-646.265326 270.235485 -380.000000
-644.353768 269.647313 -380.000000
-642.442210 269.059142 -380.000000
-640.530652 268.470970 -380.000000
-638.619094 267.882798 -380.000000
-636.707536 267.294626 -380.000000
-634.795978 266.706455 -380.000000
-632.884420 266.118283 -380.000000
-630.972862 265.530111 -380.000000
-629.061304 264.941940 -380.000000
-627.149746 264.353768 -380.000000
-625.238188 263.765596 -380.000000
-623.326630 263.177425 -380.000000
-621.415072 262.589253 -380.000000
-619.503514 262.001081 -380.000000
-617.591956 261.412909 -380.000000
-615.680398 260.824738 -380.000000
-613.768840 260.236566 -380.000000
-611.857282 259.648394 -380.000000
-609.945724 259.060223 -380.000000
-608.034166 258.472051 -380.000000
-606.122608 257.883879 -380.000000
-604.211050 257.295708 -380.000000
-602.299492 256.707536 -380.000000
-600.000000 256.000000 -380.000000
-598.367951 254.843965 -380.000000
-596.735902 253.687931 -380.000000
-595.103853 252.531896 -380.000000
-593.471804 251.375861 -380.000000
-591.839755 250.219827 -380.000000
-590.207706 249.063792 -380.000000
-588.575657 247.907757 -380.000000
-586.943608 246.751723 -380.000000
-585.311559 245.595688 -380.000000
-583.679510 244.439653 -380.000000
-582.047461 243.283619 -380.000000
-580.415412 242.127584 -380.000000
-578.783363 240.971549 -380.000000
-577.151315 239.815514 -380.000000
-575.519266 238.659480 -380.000000
-573.887217 237.503445 -380.000000
-572.255168 236.347410 -380.000000
-570.623119 235.191376 -380.000000
-568.991070 234.035341 -380.000000
-567.359021 232.879306 -380.000000
-565.726972 231.723272 -380.000000
-564.094923 230.567237 -380.000000
-562.462874 229.411202 -380.000000
-560.830825 228.255168 -380.000000
-559.198776 227.099133 -380.000000
-557.566727 225.943098 -380.000000
-555.934678 224.787064 -380.000000
-554.302629 223.631029 -380.000000
-552.670580 222.474994 -380.000000
-551.038531 221.318960 -380.000000
-549.406482 220.162925 -380.000000
-547.774433 219.006890 -380.000000
-546.142384 217.850856 -380.000000
-544.510335 216.694821 -380.000000
-542.878286 215.538786 -380.000000
-541.246237 214.382751 -380.000000
-539.614188 213.226717 -380.000000
-537.982139 212.070682 -380.000000
-536.350090 210.914647 -380.000000
-534.718042 209.758613 -380.000000
-533.085993 208.602578 -380.000000
-531.453944 207.446543 -380.000000
-529.821895 206.290509 -380.000000
-528.189846 205.134474 -380.000000
-526.557797 203.978439 -380.000000
-524.925748 202.822405 -380.000000
-523.293699 201.666370 -380.000000
-521.661650 200.510335 -380.000000
-520.029601 199.354301 -380.000000
-518.397552 198.198266 -380.000000
-516.765503 197.042231 -380.000000
-515.133454 195.886197 -380.000000
-513.501405 194.730162 -380.000000
-511.869356 193.574127 -380.000000
-510.237307 192.418093 -380.000000
-508.605258 191.262058 -380.000000
-506.973209 190.106023 -380.000000
-505.341160 188.949988 -380.000000
-503.709111 187.793954 -380.000000
-502.077062 186.637919 -380.000000
-500.445013 185.481884 -380.000000
-498.812964 184.325850 -380.000000
-497.180915 183.169815 -380.000000
-495.548866 182.013780 -380.000000
-493.916817 180.857746 -380.000000
-492.284768 179.701711 -380.000000
-490.652720 178.545676 -380.000000
-489.020671 177.389642 -380.000000
-487.388622 176.233607 -380.000000
-485.756573 175.077572 -380.000000
-484.124524 173.921538 -380.000000
-482.492475 172.765503 -380.000000
-480.860426 171.609468 -380.000000
-479.228377 170.453434 -380.000000
-477.596328 169.297399 -380.000000
-475.964279 168.141364 -380.000000
-474.332230 166.985330 -380.000000
-472.700181 165.829295 -380.000000
-471.068132 164.673260 -380.000000
-469.436083 163.517225 -380.000000
-467.804034 162.361191 -380.000000
-466.171985 161.205156 -380.000000
-464.539936 160.049121 -380.000000
-462.907887 158.893087 -380.000000
-461.275838 157.737052 -380.000000
-459.643789 156.581017 -380.000000
-458.011740 155.424983 -380.000000
-456.379691 154.268948 -380.000000
-454.747642 153.112913 -380.000000
-453.115593 151.956879 -380.000000
-451.483544 150.800844 -380.000000
-449.851495 149.644809 -380.000000
-448.219447 148.488775 -380.000000
-446.587398 147.332740 -380.000000
-444.955349 146.176705 -380.000000
-443.323300 145.020671 -380.000000
-441.691251 143.864636 -380.000000
-440.059202 142.708601 -380.000000
-438.427153 141.552567 -380.000000
-436.795104 140.396532 -380.000000
-435.163055 139.240497 -380.000000
-433.531006 138.084462 -380.000000
-431.898957 136.928428 -380.000000
-430.266908 135.772393 -380.000000
-428.634859 134.616358 -380.000000
-427.002810 133.460324 -380.000000
-425.370761 132.304289 -380.000000
-423.738712 131.148254 -380.000000
-422.106663 129.992220 -380.000000
-420.474614 128.836185 -380.000000
-418.842565 127.680150 -380.000000
-417.210516 126.524116 -380.000000
-415.578467 125.368081 -380.000000
-413.946418 124.212046 -380.000000
-412.314369 123.056012 -380.000000
-410.682320 121.899977 -380.000000
