376.000000 808.000000 8.000000
374.717553 809.424941 8.569976
373.435106 810.849882 9.139953
372.152659 812.274823 9.709929
370.870212 813.699764 10.279906
369.587766 815.124705 10.849882
368.305319 816.549646 11.419858
367.022872 817.974587 11.989835
365.740425 819.399528 12.559811
364.457978 820.824469 13.129788
363.175531 822.249410 13.699764
361.893084 823.674351 14.269740
360.610637 825.099292 14.839717
359.328190 826.524233 15.409693
358.045743 827.949174 15.979670
356.763297 829.374115 16.549646
355.480850 830.799056 17.119622
354.198403 832.223997 17.689599
352.915956 833.648938 18.259575
351.633509 835.073879 18.829552
350.351062 836.498820 19.399528
349.068615 837.923761 19.969504
347.786168 839.348702 20.539481
346.503721 840.773643 21.109457
345.221274 842.198584 21.679434
343.938828 843.623525 22.249410
342.656381 845.048466 22.819386
341.373934 846.473407 23.389363
340.091487 847.898348 23.959339
338.809040 849.323289 24.529316
337.526593 850.748230 25.099292
336.244146 852.173171 25.669268
334.961699 853.598112 26.239245
333.679252 855.023053 26.809221
332.396805 856.447994 27.379198
331.114359 857.872935 27.949174
329.831912 859.297876 28.519150
328.549465 860.722817 29.089127
327.267018 862.147758 29.659103
325.984571 863.572699 30.229080
324.702124 864.997640 30.799056
323.419677 866.422581 31.369032
322.137230 867.847522 31.939009
320.854783 869.272463 32.508985
319.572336 870.697404 33.078962
318.289890 872.122345 33.648938
317.007443 873.547286 34.218914
315.724996 874.972227 34.788891
314.442549 876.397168 35.358867
313.160102 877.822109 35.928844
311.877655 879.247050 36.498820
310.595208 880.671991 37.068796
309.312761 882.096932 37.638773
308.030314 883.521873 38.208749
306.747867 884.946814 38.778726
305.465421 886.371755 39.348702
304.000000 888.000000 40.000000
303.909185 888.000000 41.997937
303.818369 888.000000 43.995874
303.727554 888.000000 45.993811
303.636739 888.000000 47.991748
303.545923 888.000000 49.989685
303.455108 888.000000 51.987622
303.364293 888.000000 53.985560
303.273477 888.000000 55.983497
303.182662 888.000000 57.981434
303.091847 888.000000 59.979371
303.001031 888.000000 61.977308
302.910216 888.000000 63.975245
302.819401 888.000000 65.973182
302.728585 888.000000 67.971119
302.637770 888.000000 69.969056
302.546955 888.000000 71.966993
302.456140 888.000000 73.964930
302.365324 888.000000 75.962867
302.274509 888.000000 77.960805
302.183694 888.000000 79.958742
302.092878 888.000000 81.956679
302.002063 888.000000 83.954616
301.911248 888.000000 85.952553
301.820432 888.000000 87.950490
301.729617 888.000000 89.948427
301.638802 888.000000 91.946364
301.547986 888.000000 93.944301
301.457171 888.000000 95.942238
301.366356 888.000000 97.940175
301.275540 888.000000 99.938112
301.184725 888.000000 101.936049
301.093910 888.000000 103.933987
301.003094 888.000000 105.931924
300.912279 888.000000 107.929861
300.821464 888.000000 109.927798
300.730648 888.000000 111.925735
300.639833 888.000000 113.923672
300.549018 888.000000 115.921609
300.458202 888.000000 117.919546
300.367387 888.000000 119.917483
300.276572 888.000000 121.915420
300.185756 888.000000 123.913357
300.094941 888.000000 125.911294
300.000000 888.000000 128.000000
300.282843 888.000000 129.979899
300.565685 888.000000 131.959798
300.848528 888.000000 133.939697
301.131371 888.000000 135.919596
301.414214 888.000000 137.899495
301.697056 888.000000 139.879394
301.979899 888.000000 141.859293
302.262742 888.000000 143.839192
302.545584 888.000000 145.819091
302.828427 888.000000 147.798990
303.111270 888.000000 149.778889
303.394113 888.000000 151.758788
303.676955 888.000000 153.738687
304.000000 888.000000 156.000000
304.677439 886.118225 156.000000
305.354878 884.236450 156.000000
306.032317 882.354676 156.000000
306.709756 880.472901 156.000000
307.387195 878.591126 156.000000
308.064634 876.709351 156.000000
308.742073 874.827576 156.000000
309.419511 872.945801 156.000000
310.096950 871.064027 156.000000
310.774389 869.182252 156.000000
311.451828 867.300477 156.000000
312.129267 865.418702 156.000000
312.806706 863.536927 156.000000
313.484145 861.655152 156.000000
314.161584 859.773378 156.000000
314.839023 857.891603 156.000000
315.516462 856.009828 156.000000
316.193901 854.128053 156.000000
316.871340 852.246278 156.000000
317.548779 850.364504 156.000000
318.226218 848.482729 156.000000
318.903657 846.600954 156.000000
319.581096 844.719179 156.000000
320.258534 842.837404 156.000000
320.935973 840.955629 156.000000
321.613412 839.073855 156.000000
322.290851 837.192080 156.000000
322.968290 835.310305 156.000000
323.645729 833.428530 156.000000
324.323168 831.546755 156.000000
325.000607 829.664980 156.000000
325.678046 827.783206 156.000000
326.355485 825.901431 156.000000
327.032924 824.019656 156.000000
327.710363 822.137881 156.000000
328.387802 820.256106 156.000000
329.065241 818.374332 156.000000
329.742680 816.492557 156.000000
330.420119 814.610782 156.000000
331.097557 812.729007 156.000000
331.774996 810.847232 156.000000
332.452435 808.965457 156.000000
333.129874 807.083683 156.000000
333.807313 805.201908 156.000000
334.484752 803.320133 156.000000
335.162191 801.438358 156.000000
335.839630 799.556583 156.000000
336.517069 797.674808 156.000000
337.194508 795.793034 156.000000
337.871947 793.911259 156.000000
338.549386 792.029484 156.000000
339.226825 790.147709 156.000000
339.904264 788.265934 156.000000
340.581703 786.384160 156.000000
341.259142 784.502385 156.000000
341.936580 782.620610 156.000000
342.614019 780.738835 156.000000
343.291458 778.857060 156.000000
343.968897 776.975285 156.000000
344.646336 775.093511 156.000000
345.323775 773.211736 156.000000
346.001214 771.329961 156.000000
346.678653 769.448186 156.000000
347.356092 767.566411 156.000000
348.033531 765.684636 156.000000
348.710970 763.802862 156.000000
349.388409 761.921087 156.000000
350.065848 760.039312 156.000000
350.743287 758.157537 156.000000
351.420726 756.275762 156.000000
352.098164 754.393988 156.000000
352.775603 752.512213 156.000000
353.453042 750.630438 156.000000
354.130481 748.748663 156.000000
354.807920 746.866888 156.000000
355.485359 744.985113 156.000000
356.162798 743.103339 156.000000
356.840237 741.221564 156.000000
357.517676 739.339789 156.000000
358.195115 737.458014 156.000000
358.872554 735.576239 156.000000
359.549993 733.694464 156.000000
360.227432 731.812690 156.000000
360.904871 729.930915 156.000000
361.582310 728.049140 156.000000
362.259749 726.167365 156.000000
362.937187 724.285590 156.000000
363.614626 722.403816 156.000000
364.292065 720.522041 156.000000
364.969504 718.640266 156.000000
365.646943 716.758491 156.000000
366.324382 714.876716 156.000000
367.001821 712.994941 156.000000
367.679260 711.113167 156.000000
368.356699 709.231392 156.000000
369.034138 707.349617 156.000000
369.711577 705.467842 156.000000
370.389016 703.586067 156.000000
371.066455 701.704292 156.000000
371.743894 699.822518 156.000000
372.421333 697.940743 156.000000
373.098772 696.058968 156.000000
373.776210 694.177193 156.000000
374.453649 692.295418 156.000000
375.131088 690.413644 156.000000
376.000000 688.000000 156.000000
374.876997 686.345048 156.000000
373.753994 684.690097 156.000000
372.630991 683.035145 156.000000
371.507989 681.380194 156.000000
370.384986 679.725242 156.000000
369.261983 678.070291 156.000000
368.138980 676.415339 156.000000
367.015977 674.760388 156.000000
365.892974 673.105436 156.000000
364.769972 671.450485 156.000000
363.646969 669.795533 156.000000
362.523966 668.140581 156.000000
361.400963 666.485630 156.000000
360.277960 664.830678 156.000000
359.154957 663.175727 156.000000
358.031955 661.520775 156.000000
356.908952 659.865824 156.000000
355.785949 658.210872 156.000000
354.662946 656.555921 156.000000
353.539943 654.900969 156.000000
352.416940 653.246017 156.000000
351.293938 651.591066 156.000000
350.170935 649.936114 156.000000
349.047932 648.281163 156.000000
347.924929 646.626211 156.000000
346.801926 644.971260 156.000000
345.678923 643.316308 156.000000
344.555921 641.661357 156.000000
343.432918 640.006405 156.000000
342.309915 638.351454 156.000000
341.186912 636.696502 156.000000
340.063909 635.041550 156.000000
338.940906 633.386599 156.000000
337.817904 631.731647 156.000000
336.694901 630.076696 156.000000
335.571898 628.421744 156.000000
334.448895 626.766793 156.000000
333.325892 625.111841 156.000000
332.202889 623.456890 156.000000
331.079887 621.801938 156.000000
329.956884 620.146986 156.000000
328.833881 618.492035 156.000000
327.710878 616.837083 156.000000
326.587875 615.182132 156.000000
325.464872 613.527180 156.000000
324.341870 611.872229 156.000000
323.218867 610.217277 156.000000
322.095864 608.562326 156.000000
320.972861 606.907374 156.000000
319.849858 605.252423 156.000000
318.726855 603.597471 156.000000
317.603852 601.942519 156.000000
316.480850 600.287568 156.000000
315.357847 598.632616 156.000000
314.234844 596.977665 156.000000
313.111841 595.322713 156.000000
311.988838 593.667762 156.000000
310.865835 592.012810 156.000000
309.742833 590.357859 156.000000
308.619830 588.702907 156.000000
307.496827 587.047956 156.000000
306.373824 585.393004 156.000000
305.250821 583.738052 156.000000
304.127818 582.083101 156.000000
303.004816 580.428149 156.000000
301.881813 578.773198 156.000000
300.000000 576.000000 156.000000
299.389455 575.720894 154.116032
298.778910 575.441787 152.232065
298.168365 575.162681 150.348097
297.557820 574.883575 148.464129
296.947275 574.604468 146.580161
296.336729 574.325362 144.696194
295.726184 574.046256 142.812226
295.115639 573.767149 140.928258
294.505094 573.488043 139.044291
293.894549 573.208937 137.160323
293.284004 572.929830 135.276355
292.673459 572.650724 133.392387
292.062914 572.371618 131.508420
291.452369 572.092511 129.624452
290.841824 571.813405 127.740484
290.231279 571.534299 125.856517
289.620733 571.255192 123.972549
289.010188 570.976086 122.088581
288.399643 570.696980 120.204613
287.789098 570.417873 118.320646
287.178553 570.138767 116.436678
286.568008 569.859661 114.552710
285.957463 569.580554 112.668743
285.346918 569.301448 110.784775
284.736373 569.022342 108.900807
284.125828 568.743235 107.016839
283.515283 568.464129 105.132872
282.904737 568.185023 103.248904
282.294192 567.905916 101.364936
281.683647 567.626810 99.480969
281.073102 567.347704 97.597001
280.462557 567.068598 95.713033
279.852012 566.789491 93.829065
279.241467 566.510385 91.945098
278.630922 566.231279 90.061130
278.020377 565.952172 88.177162
277.409832 565.673066 86.293195
276.799286 565.393960 84.409227
276.188741 565.114853 82.525259
275.578196 564.835747 80.641291
274.967651 564.556641 78.757324
274.357106 564.277534 76.873356
273.746561 563.998428 74.989388
273.136016 563.719322 73.105421
272.525471 563.440215 71.221453
271.914926 563.161109 69.337485
271.304381 562.882003 67.453517
270.693836 562.602896 65.569550
270.083290 562.323790 63.685582
269.472745 562.044684 61.801614
268.862200 561.765577 59.917647
268.251655 561.486471 58.033679
267.641110 561.207365 56.149711
267.030565 560.928258 54.265743
266.420020 560.649152 52.381776
265.809475 560.370046 50.497808
265.198930 560.090939 48.613840
264.588385 559.811833 46.729873
263.977840 559.532727 44.845905
263.367294 559.253620 42.961937
262.756749 558.974514 41.077969
262.146204 558.695408 39.194002
261.535659 558.416301 37.310034
260.925114 558.137195 35.426066
260.314569 557.858089 33.542099
259.704024 557.578982 31.658131
259.093479 557.299876 29.774163
258.482934 557.020770 27.890195
257.872389 556.741663 26.006228
257.261844 556.462557 24.122260
256.651298 556.183451 22.238292
256.040753 555.904344 20.354325
255.430208 555.625238 18.470357
254.819663 555.346132 16.586389
254.209118 555.067025 14.702421
253.598573 554.787919 12.818454
252.988028 554.508813 10.934486
252.377483 554.229706 9.050518
251.766938 553.950600 7.166551
251.156393 553.671494 5.282583
250.545848 553.392387 3.398615
249.935302 553.113281 1.514647
249.324757 552.834175 -0.369320
248.714212 552.555068 -2.253288
248.103667 552.275962 -4.137256
247.493122 551.996856 -6.021223
246.882577 551.717749 -7.905191
246.272032 551.438643 -9.789159
245.661487 551.159537 -11.673127
245.050942 550.880430 -13.557094
244.440397 550.601324 -15.441062
243.829851 550.322218 -17.325030
243.219306 550.043111 -19.208997
242.608761 549.764005 -21.092965
241.998216 549.484899 -22.976933
241.387671 549.205793 -24.860901
240.777126 548.926686 -26.744868
240.166581 548.647580 -28.628836
239.556036 548.368474 -30.512804
238.945491 548.089367 -32.396771
238.334946 547.810261 -34.280739
237.724401 547.531155 -36.164707
237.113855 547.252048 -38.048675
236.503310 546.972942 -39.932642
235.892765 546.693836 -41.816610
235.282220 546.414729 -43.700578
234.671675 546.135623 -45.584545
234.061130 545.856517 -47.468513
233.450585 545.577410 -49.352481
232.840040 545.298304 -51.236449
232.229495 545.019198 -53.120416
231.618950 544.740091 -55.004384
231.008405 544.460985 -56.888352
230.397859 544.181879 -58.772319
229.787314 543.902772 -60.656287
229.176769 543.623666 -62.540255
228.566224 543.344560 -64.424223
227.955679 543.065453 -66.308190
227.345134 542.786347 -68.192158
226.734589 542.507241 -70.076126
226.124044 542.228134 -71.960093
225.513499 541.949028 -73.844061
224.902954 541.669922 -75.728029
224.292409 541.390815 -77.611997
223.681863 541.111709 -79.495964
223.071318 540.832603 -81.379932
222.460773 540.553496 -83.263900
221.850228 540.274390 -85.147867
221.239683 539.995284 -87.031835
220.629138 539.716177 -88.915803
220.018593 539.437071 -90.799771
219.408048 539.157965 -92.683738
218.797503 538.878858 -94.567706
218.186958 538.599752 -96.451674
217.576413 538.320646 -98.335641
216.965867 538.041539 -100.219609
216.355322 537.762433 -102.103577
215.744777 537.483327 -103.987545
215.134232 537.204220 -105.871512
214.523687 536.925114 -107.755480
213.913142 536.646008 -109.639448
213.302597 536.366901 -111.523415
212.692052 536.087795 -113.407383
212.081507 535.808689 -115.291351
211.470962 535.529582 -117.175319
210.860416 535.250476 -119.059286
210.249871 534.971370 -120.943254
209.639326 534.692263 -122.827222
209.028781 534.413157 -124.711189
208.418236 534.134051 -126.595157
207.807691 533.854944 -128.479125
207.197146 533.575838 -130.363093
206.586601 533.296732 -132.247060
205.976056 533.017625 -134.131028
205.365511 532.738519 -136.014996
204.754966 532.459413 -137.898963
204.144420 532.180307 -139.782931
203.533875 531.901200 -141.666899
202.923330 531.622094 -143.550867
202.312785 531.342988 -145.434834
201.702240 531.063881 -147.318802
201.091695 530.784775 -149.202770
200.481150 530.505669 -151.086737
199.870605 530.226562 -152.970705
199.260060 529.947456 -154.854673
198.649515 529.668350 -156.738641
198.038970 529.389243 -158.622608
197.428424 529.110137 -160.506576
196.817879 528.831031 -162.390544
196.207334 528.551924 -164.274511
195.596789 528.272818 -166.158479
194.986244 527.993712 -168.042447
194.375699 527.714605 -169.926415
193.765154 527.435499 -171.810382
193.154609 527.156393 -173.694350
192.544064 526.877286 -175.578318
191.933519 526.598180 -177.462285
191.322974 526.319074 -179.346253
190.712428 526.039967 -181.230221
190.101883 525.760861 -183.114189
189.491338 525.481755 -184.998156
188.880793 525.202648 -186.882124
188.270248 524.923542 -188.766092
187.659703 524.644436 -190.650059
187.049158 524.365329 -192.534027
186.438613 524.086223 -194.417995
185.828068 523.807117 -196.301963
185.217523 523.528010 -198.185930
184.606978 523.248904 -200.069898
183.996432 522.969798 -201.953866
183.385887 522.690691 -203.837833
182.775342 522.411585 -205.721801
182.164797 522.132479 -207.605769
181.554252 521.853372 -209.489737
180.943707 521.574266 -211.373704
180.333162 521.295160 -213.257672
179.722617 521.016053 -215.141640
179.112072 520.736947 -217.025607
178.501527 520.457841 -218.909575
177.890981 520.178734 -220.793543
177.280436 519.899628 -222.677511
176.669891 519.620522 -224.561478
176.059346 519.341415 -226.445446
175.448801 519.062309 -228.329414
174.838256 518.783203 -230.213381
174.227711 518.504096 -232.097349
173.617166 518.224990 -233.981317
173.006621 517.945884 -235.865285
172.396076 517.666777 -237.749252
171.785531 517.387671 -239.633220
171.174985 517.108565 -241.517188
170.564440 516.829458 -243.401155
169.953895 516.550352 -245.285123
169.343350 516.271246 -247.169091
168.732805 515.992139 -249.053059
168.122260 515.713033 -250.937026
167.511715 515.433927 -252.820994
166.901170 515.154820 -254.704962
166.290625 514.875714 -256.588929
165.680080 514.596608 -258.472897
165.069535 514.317502 -260.356865
164.458989 514.038395 -262.240833
163.848444 513.759289 -264.124800
163.237899 513.480183 -266.008768
162.627354 513.201076 -267.892736
162.016809 512.921970 -269.776703
161.406264 512.642864 -271.660671
160.795719 512.363757 -273.544639
160.000000 512.000000 -276.000000
159.019841 510.257495 -276.054453
158.039682 508.514990 -276.108907
157.059523 506.772485 -276.163360
156.079364 505.029981 -276.217813
155.099205 503.287476 -276.272266
154.119046 501.544971 -276.326720
153.138887 499.802466 -276.381173
152.158728 498.059961 -276.435626
151.178569 496.317456 -276.490079
150.198410 494.574951 -276.544533
149.218251 492.832446 -276.598986
148.238092 491.089942 -276.653439
147.257933 489.347437 -276.707893
146.277774 487.604932 -276.762346
145.297615 485.862427 -276.816799
144.317456 484.119922 -276.871252
143.337297 482.377417 -276.925706
142.357138 480.634912 -276.980159
141.376979 478.892408 -277.034612
140.396820 477.149903 -277.089066
139.416661 475.407398 -277.143519
138.436502 473.664893 -277.197972
137.456343 471.922388 -277.252425
136.476184 470.179883 -277.306879
135.496025 468.437378 -277.361332
134.515866 466.694874 -277.415785
133.535707 464.952369 -277.470238
132.555548 463.209864 -277.524692
131.575389 461.467359 -277.579145
130.595230 459.724854 -277.633598
129.615071 457.982349 -277.688052
128.634912 456.239844 -277.742505
127.654753 454.497339 -277.796958
126.674594 452.754835 -277.851411
125.694435 451.012330 -277.905865
124.714276 449.269825 -277.960318
123.734118 447.527320 -278.014771
122.753959 445.784815 -278.069225
121.773800 444.042310 -278.123678
120.793641 442.299805 -278.178131
119.813482 440.557301 -278.232584
118.833323 438.814796 -278.287038
117.853164 437.072291 -278.341491
116.873005 435.329786 -278.395944
115.892846 433.587281 -278.450397
114.912687 431.844776 -278.504851
113.932528 430.102271 -278.559304
112.952369 428.359767 -278.613757
111.972210 426.617262 -278.668211
110.992051 424.874757 -278.722664
110.011892 423.132252 -278.777117
109.031733 421.389747 -278.831570
108.051574 419.647242 -278.886024
107.071415 417.904737 -278.940477
106.091256 416.162232 -278.994930
105.111097 414.419728 -279.049384
104.130938 412.677223 -279.103837
103.150779 410.934718 -279.158290
102.170620 409.192213 -279.212743
101.190461 407.449708 -279.267197
100.210302 405.707203 -279.321650
99.230143 403.964698 -279.376103
98.249984 402.222194 -279.430556
97.269825 400.479689 -279.485010
96.289666 398.737184 -279.539463
95.309507 396.994679 -279.593916
94.329348 395.252174 -279.648370
93.349189 393.509669 -279.702823
92.369030 391.767164 -279.757276
91.388871 390.024659 -279.811729
90.408712 388.282155 -279.866183
89.428553 386.539650 -279.920636
88.448394 384.797145 -279.975089
87.468235 383.054640 -280.029542
86.488076 381.312135 -280.083996
85.507917 379.569630 -280.138449
84.527758 377.827125 -280.192902
83.547599 376.084621 -280.247356
82.567440 374.342116 -280.301809
81.587281 372.599611 -280.356262
80.607122 370.857106 -280.410715
79.626963 369.114601 -280.465169
78.646804 367.372096 -280.519622
77.666645 365.629591 -280.574075
76.686486 363.887087 -280.628529
75.706327 362.144582 -280.682982
74.726168 360.402077 -280.737435
73.746009 358.659572 -280.791888
72.765850 356.917067 -280.846342
71.785691 355.174562 -280.900795
70.805532 353.432057 -280.955248
69.825373 351.689552 -281.009701
68.845214 349.947048 -281.064155
67.865055 348.204543 -281.118608
66.884896 346.462038 -281.173061
65.904737 344.719533 -281.227515
64.924578 342.977028 -281.281968
63.944419 341.234523 -281.336421
62.964260 339.492018 -281.390874
61.984101 337.749514 -281.445328
61.003942 336.007009 -281.499781
60.023783 334.264504 -281.554234
59.043624 332.521999 -281.608688
58.063465 330.779494 -281.663141
57.083306 329.036989 -281.717594
56.103147 327.294484 -281.772047
55.122988 325.551980 -281.826501
54.142829 323.809475 -281.880954
53.162671 322.066970 -281.935407
52.182512 320.324465 -281.989860
51.202353 318.581960 -282.044314
50.222194 316.839455 -282.098767
49.242035 315.096950 -282.153220
48.261876 313.354445 -282.207674
47.281717 311.611941 -282.262127
46.301558 309.869436 -282.316580
45.321399 308.126931 -282.371033
44.341240 306.384426 -282.425487
43.361081 304.641921 -282.479940
42.380922 302.899416 -282.534393
41.400763 301.156911 -282.588847
40.420604 299.414407 -282.643300
39.440445 297.671902 -282.697753
38.460286 295.929397 -282.752206
37.480127 294.186892 -282.806660
36.499968 292.444387 -282.861113
35.519809 290.701882 -282.915566
34.539650 288.959377 -282.970019
33.559491 287.216872 -283.024473
32.579332 285.474368 -283.078926
31.599173 283.731863 -283.133379
30.619014 281.989358 -283.187833
29.638855 280.246853 -283.242286
28.658696 278.504348 -283.296739
27.678537 276.761843 -283.351192
26.698378 275.019338 -283.405646
25.718219 273.276834 -283.460099
24.738060 271.534329 -283.514552
23.757901 269.791824 -283.569006
22.777742 268.049319 -283.623459
21.797583 266.306814 -283.677912
20.817424 264.564309 -283.732365
19.837265 262.821804 -283.786819
18.857106 261.079300 -283.841272
17.876947 259.336795 -283.895725
16.000000 256.000000 -284.000000
14.635363 254.537889 -284.000000
13.270727 253.075779 -284.000000
11.906090 251.613668 -284.000000
10.541454 250.151558 -284.000000
9.176817 248.689447 -284.000000
7.812181 247.227337 -284.000000
6.447544 245.765226 -284.000000
5.082908 244.303116 -284.000000
3.718271 242.841005 -284.000000
2.353635 241.378895 -284.000000
0.988998 239.916784 -284.000000
-0.375638 238.454674 -284.000000
-1.740275 236.992563 -284.000000
-3.104911 235.530452 -284.000000
-4.469548 234.068342 -284.000000
-5.834184 232.606231 -284.000000
-7.198821 231.144121 -284.000000
-8.563457 229.682010 -284.000000
-9.928094 228.219900 -284.000000
-11.292730 226.757789 -284.000000
-12.657367 225.295679 -284.000000
-14.022003 223.833568 -284.000000
-15.386640 222.371458 -284.000000
-16.751276 220.909347 -284.000000
-18.115913 219.447237 -284.000000
-19.480549 217.985126 -284.000000
-20.845186 216.523016 -284.000000
-22.209822 215.060905 -284.000000
-23.574459 213.598794 -284.000000
-24.939095 212.136684 -284.000000
-26.303732 210.674573 -284.000000
-27.668368 209.212463 -284.000000
-29.033005 207.750352 -284.000000
-30.397641 206.288242 -284.000000
-31.762278 204.826131 -284.000000
-33.126914 203.364021 -284.000000
-34.491551 201.901910 -284.000000
-35.856187 200.439800 -284.000000
-37.220824 198.977689 -284.000000
-38.585460 197.515579 -284.000000
-39.950097 196.053468 -284.000000
-41.314733 194.591357 -284.000000
-42.679370 193.129247 -284.000000
-44.044006 191.667136 -284.000000
-45.408643 190.205026 -284.000000
-46.773279 188.742915 -284.000000
-48.137916 187.280805 -284.000000
-49.502552 185.818694 -284.000000
-50.867189 184.356584 -284.000000
-52.231825 182.894473 -284.000000
-53.596462 181.432363 -284.000000
-54.961098 179.970252 -284.000000
-56.325735 178.508142 -284.000000
-57.690371 177.046031 -284.000000
-59.055008 175.583920 -284.000000
-60.419644 174.121810 -284.000000
-61.784281 172.659699 -284.000000
-63.148917 171.197589 -284.000000
-64.513554 169.735478 -284.000000
-65.878190 168.273368 -284.000000
-67.242827 166.811257 -284.000000
-68.607463 165.349147 -284.000000
-69.972100 163.887036 -284.000000
-71.336736 162.424926 -284.000000
-72.701373 160.962815 -284.000000
-74.066009 159.500705 -284.000000
-75.430646 158.038594 -284.000000
-76.795282 156.576484 -284.000000
-78.159919 155.114373 -284.000000
-79.524555 153.652262 -284.000000
-80.889192 152.190152 -284.000000
-82.253828 150.728041 -284.000000
-83.618465 149.265931 -284.000000
-84.983101 147.803820 -284.000000
-86.347738 146.341710 -284.000000
-87.712374 144.879599 -284.000000
-89.077011 143.417489 -284.000000
-90.441647 141.955378 -284.000000
-91.806284 140.493268 -284.000000
-93.170920 139.031157 -284.000000
-94.535557 137.569047 -284.000000
-96.000000 136.000000 -284.000000
-97.999229 135.944466 -284.000000
-99.998458 135.888932 -284.000000
-101.997687 135.833398 -284.000000
-103.996915 135.777863 -284.000000
-105.996144 135.722329 -284.000000
-107.995373 135.666795 -284.000000
-109.994602 135.611261 -284.000000
-111.993831 135.555727 -284.000000
-113.993060 135.500193 -284.000000
-115.992288 135.444659 -284.000000
-117.991517 135.389125 -284.000000
-119.990746 135.333590 -284.000000
-121.989975 135.278056 -284.000000
-123.989204 135.222522 -284.000000
-125.988433 135.166988 -284.000000
-127.987661 135.111454 -284.000000
-129.986890 135.055920 -284.000000
-131.986119 135.000386 -284.000000
-133.985348 134.944851 -284.000000
-135.984577 134.889317 -284.000000
-137.983806 134.833783 -284.000000
-139.983035 134.778249 -284.000000
-141.982263 134.722715 -284.000000
-143.981492 134.667181 -284.000000
-145.980721 134.611647 -284.000000
-147.979950 134.556113 -284.000000
-149.979179 134.500578 -284.000000
-151.978408 134.445044 -284.000000
-153.977636 134.389510 -284.000000
-155.976865 134.333976 -284.000000
-157.976094 134.278442 -284.000000
-159.975323 134.222908 -284.000000
-161.974552 134.167374 -284.000000
-163.973781 134.111839 -284.000000
-165.973009 134.056305 -284.000000
-167.972238 134.000771 -284.000000
-169.971467 133.945237 -284.000000
-171.970696 133.889703 -284.000000
-173.969925 133.834169 -284.000000
-175.969154 133.778635 -284.000000
-177.968382 133.723100 -284.000000
-179.967611 133.667566 -284.000000
-181.966840 133.612032 -284.000000
-183.966069 133.556498 -284.000000
-185.965298 133.500964 -284.000000
-187.964527 133.445430 -284.000000
-189.963756 133.389896 -284.000000
-191.962984 133.334362 -284.000000
-193.962213 133.278827 -284.000000
-195.961442 133.223293 -284.000000
-197.960671 133.167759 -284.000000
-199.959900 133.112225 -284.000000
-201.959129 133.056691 -284.000000
-203.958357 133.001157 -284.000000
-205.957586 132.945623 -284.000000
-207.956815 132.890088 -284.000000
-209.956044 132.834554 -284.000000
-211.955273 132.779020 -284.000000
-213.954502 132.723486 -284.000000
-215.953730 132.667952 -284.000000
-217.952959 132.612418 -284.000000
-219.952188 132.556884 -284.000000
-221.951417 132.501350 -284.000000
-223.950646 132.445815 -284.000000
-225.949875 132.390281 -284.000000
-227.949104 132.334747 -284.000000
-229.948332 132.279213 -284.000000
-231.947561 132.223679 -284.000000
-233.946790 132.168145 -284.000000
-235.946019 132.112611 -284.000000
-237.945248 132.057076 -284.000000
-239.944477 132.001542 -284.000000
-241.943705 131.946008 -284.000000
-243.942934 131.890474 -284.000000
-245.942163 131.834940 -284.000000
-247.941392 131.779406 -284.000000
-249.940621 131.723872 -284.000000
-251.939850 131.668338 -284.000000
-253.939078 131.612803 -284.000000
-255.938307 131.557269 -284.000000
-257.937536 131.501735 -284.000000
-259.936765 131.446201 -284.000000
-261.935994 131.390667 -284.000000
-263.935223 131.335133 -284.000000
-265.934452 131.279599 -284.000000
-267.933680 131.224064 -284.000000
-269.932909 131.168530 -284.000000
-271.932138 131.112996 -284.000000
-273.931367 131.057462 -284.000000
-275.930596 131.001928 -284.000000
-277.929825 130.946394 -284.000000
-279.929053 130.890860 -284.000000
-281.928282 130.835325 -284.000000
-283.927511 130.779791 -284.000000
-285.926740 130.724257 -284.000000
-287.925969 130.668723 -284.000000
-289.925198 130.613189 -284.000000
-291.924426 130.557655 -284.000000
-293.923655 130.502121 -284.000000
-295.922884 130.446587 -284.000000
-297.922113 130.391052 -284.000000
-299.921342 130.335518 -284.000000
-301.920571 130.279984 -284.000000
-303.919799 130.224450 -284.000000
-305.919028 130.168916 -284.000000
-307.918257 130.113382 -284.000000
-309.917486 130.057848 -284.000000
-311.916715 130.002313 -284.000000
-313.915944 129.946779 -284.000000
-315.915173 129.891245 -284.000000
-317.914401 129.835711 -284.000000
-319.913630 129.780177 -284.000000
-321.912859 129.724643 -284.000000
-323.912088 129.669109 -284.000000
-325.911317 129.613575 -284.000000
-327.910546 129.558040 -284.000000
-329.909774 129.502506 -284.000000
-331.909003 129.446972 -284.000000
-333.908232 129.391438 -284.000000
-335.907461 129.335904 -284.000000
-337.906690 129.280370 -284.000000
-339.905919 129.224836 -284.000000
-341.905147 129.169301 -284.000000
-343.904376 129.113767 -284.000000
-345.903605 129.058233 -284.000000
-347.902834 129.002699 -284.000000
-349.902063 128.947165 -284.000000
-351.901292 128.891631 -284.000000
-353.900521 128.836097 -284.000000
-355.899749 128.780563 -284.000000
-357.898978 128.725028 -284.000000
-359.898207 128.669494 -284.000000
-361.897436 128.613960 -284.000000
-363.896665 128.558426 -284.000000
-365.895894 128.502892 -284.000000
-367.895122 128.447358 -284.000000
-369.894351 128.391824 -284.000000
-371.893580 128.336289 -284.000000
-373.892809 128.280755 -284.000000
-375.892038 128.225221 -284.000000
-377.891267 128.169687 -284.000000
-379.890495 128.114153 -284.000000
-381.889724 128.058619 -284.000000
