376.000000 808.000000 8.000000
374.940374 809.324532 9.059626
373.880748 810.649065 10.119252
372.821122 811.973597 11.178878
371.761496 813.298129 12.238504
370.701871 814.622662 13.298129
369.642245 815.947194 14.357755
368.582619 817.271726 15.417381
367.522993 818.596259 16.477007
366.463367 819.920791 17.536633
365.403741 821.245324 18.596259
364.344115 822.569856 19.655885
363.284489 823.894388 20.715511
362.224863 825.218921 21.775137
361.165238 826.543453 22.834762
360.105612 827.867985 23.894388
359.045986 829.192518 24.954014
357.986360 830.517050 26.013640
356.926734 831.841582 27.073266
355.867108 833.166115 28.132892
354.807482 834.490647 29.192518
353.747856 835.815179 30.252144
352.688231 837.139712 31.311769
351.628605 838.464244 32.371395
350.568979 839.788777 33.431021
349.509353 841.113309 34.490647
348.449727 842.437841 35.550273
347.390101 843.762374 36.609899
346.330475 845.086906 37.669525
345.270849 846.411438 38.729151
344.000000 848.000000 40.000000
343.196137 848.876941 41.607725
342.392275 849.753882 43.215450
341.588412 850.630823 44.823175
340.784550 851.507764 46.430900
339.980687 852.384705 48.038625
339.176825 853.261645 49.646350
338.372962 854.138586 51.254075
337.569100 855.015527 52.861800
336.765237 855.892468 54.469525
335.961375 856.769409 56.077250
335.157512 857.646350 57.684975
334.353650 858.523291 59.292700
333.549787 859.400232 60.900425
332.745925 860.277173 62.508150
331.942062 861.154114 64.115875
331.138200 862.031055 65.723600
330.334337 862.907996 67.331325
329.530475 863.784936 68.939050
328.726612 864.661877 70.546775
327.922750 865.538818 72.154500
327.118887 866.415759 73.762225
326.315025 867.292700 75.369950
325.511162 868.169641 76.977675
324.707300 869.046582 78.585400
323.903437 869.923523 80.193125
323.099575 870.800464 81.800850
322.295712 871.677405 83.408575
321.491850 872.554346 85.016300
320.687987 873.431287 86.624025
319.884125 874.308227 88.231750
319.080262 875.185168 89.839475
318.276400 876.062109 91.447200
317.472537 876.939050 93.054925
316.668675 877.815991 94.662650
315.864812 878.692932 96.270375
315.060950 879.569873 97.878100
314.257087 880.446814 99.485825
313.453225 881.323755 101.093550
312.649362 882.200696 102.701275
311.845500 883.077637 104.309000
311.041637 883.954577 105.916725
310.237775 884.831518 107.524450
309.433912 885.708459 109.132175
308.630050 886.585400 110.739900
307.826187 887.462341 112.347625
307.022325 888.339282 113.955350
306.218462 889.216223 115.563075
305.414600 890.093164 117.170800
304.610737 890.970105 118.778525
303.806875 891.847046 120.386250
303.003012 892.723987 121.993975
302.199150 893.600928 123.601700
301.395287 894.477868 125.209426
300.000000 896.000000 128.000000
300.000000 897.727558 129.007742
300.000000 899.455116 130.015484
300.000000 901.182673 131.023226
300.000000 902.910231 132.030968
300.000000 904.637789 133.038710
300.000000 906.365347 134.046452
300.000000 908.092905 135.054194
300.000000 909.820462 136.061936
300.000000 911.548020 137.069678
300.000000 913.275578 138.077421
300.000000 915.003136 139.085163
300.000000 916.730694 140.092905
300.000000 918.458251 141.100647
300.000000 920.185809 142.108389
300.000000 921.913367 143.116131
300.000000 923.640925 144.123873
300.000000 925.368483 145.131615
300.000000 927.096040 146.139357
300.000000 928.823598 147.147099
300.000000 930.551156 148.154841
300.000000 932.278714 149.162583
300.000000 934.006272 150.170325
300.000000 935.733829 151.178067
300.000000 937.461387 152.185809
300.000000 939.188945 153.193551
300.000000 940.916503 154.201293
300.000000 944.000000 156.000000
300.000000 946.000000 156.000000
300.000000 948.000000 156.000000
300.000000 950.000000 156.000000
300.000000 952.000000 156.000000
300.000000 954.000000 156.000000
300.000000 956.000000 156.000000
300.000000 958.000000 156.000000
300.000000 960.000000 156.000000
300.000000 962.000000 156.000000
300.000000 964.000000 156.000000
300.000000 966.000000 156.000000
300.000000 968.000000 156.000000
300.000000 970.000000 156.000000
300.000000 972.000000 156.000000
300.000000 974.000000 156.000000
300.000000 976.000000 156.000000
300.000000 978.000000 156.000000
300.000000 980.000000 156.000000
300.000000 982.000000 156.000000
300.000000 984.000000 156.000000
300.000000 986.000000 156.000000
300.000000 988.000000 156.000000
300.000000 990.000000 156.000000
300.000000 992.000000 156.000000
300.000000 994.000000 156.000000
300.000000 996.000000 156.000000
300.000000 998.000000 156.000000
300.000000 1000.000000 156.000000
300.000000 1002.000000 156.000000
300.000000 1004.000000 156.000000
300.000000 1006.000000 156.000000
300.000000 1008.000000 156.000000
300.000000 1010.000000 156.000000
300.000000 1012.000000 156.000000
300.000000 1014.000000 156.000000
300.000000 1016.000000 156.000000
300.000000 1018.000000 156.000000
300.000000 1020.000000 156.000000
300.000000 1022.000000 156.000000
300.000000 1024.000000 156.000000
300.000000 1026.000000 156.000000
300.000000 1028.000000 156.000000
300.000000 1030.000000 156.000000
300.000000 1032.000000 156.000000
300.000000 1034.000000 156.000000
300.000000 1036.000000 156.000000
300.000000 1038.000000 156.000000
300.000000 1040.000000 156.000000
300.000000 1042.000000 156.000000
300.000000 1044.000000 156.000000
300.000000 1046.000000 156.000000
300.000000 1048.000000 156.000000
300.000000 1050.000000 156.000000
300.000000 1052.000000 156.000000
300.000000 1054.000000 156.000000
300.000000 1056.000000 156.000000
300.000000 1058.000000 156.000000
300.000000 1060.000000 156.000000
300.000000 1062.000000 156.000000
300.000000 1064.000000 156.000000
300.000000 1066.000000 156.000000
300.000000 1068.000000 156.000000
300.000000 1070.000000 156.000000
300.000000 1072.000000 156.000000
300.000000 1074.000000 156.000000
300.000000 1076.000000 156.000000
300.000000 1078.000000 156.000000
300.000000 1080.000000 156.000000
300.000000 1082.000000 156.000000
300.000000 1084.000000 156.000000
300.000000 1088.000000 156.000000
298.000000 1088.000000 156.000000
296.000000 1088.000000 156.000000
294.000000 1088.000000 156.000000
292.000000 1088.000000 156.000000
290.000000 1088.000000 156.000000
288.000000 1088.000000 156.000000
286.000000 1088.000000 156.000000
284.000000 1088.000000 156.000000
282.000000 1088.000000 156.000000
280.000000 1088.000000 156.000000
278.000000 1088.000000 156.000000
276.000000 1088.000000 156.000000
274.000000 1088.000000 156.000000
272.000000 1088.000000 156.000000
270.000000 1088.000000 156.000000
268.000000 1088.000000 156.000000
266.000000 1088.000000 156.000000
264.000000 1088.000000 156.000000
262.000000 1088.000000 156.000000
260.000000 1088.000000 156.000000
258.000000 1088.000000 156.000000
256.000000 1088.000000 156.000000
254.000000 1088.000000 156.000000
252.000000 1088.000000 156.000000
250.000000 1088.000000 156.000000
248.000000 1088.000000 156.000000
246.000000 1088.000000 156.000000
244.000000 1088.000000 156.000000
242.000000 1088.000000 156.000000
240.000000 1088.000000 156.000000
238.000000 1088.000000 156.000000
236.000000 1088.000000 156.000000
234.000000 1088.000000 156.000000
232.000000 1088.000000 156.000000
230.000000 1088.000000 156.000000
228.000000 1088.000000 156.000000
226.000000 1088.000000 156.000000
224.000000 1088.000000 156.000000
222.000000 1088.000000 156.000000
220.000000 1088.000000 156.000000
218.000000 1088.000000 156.000000
216.000000 1088.000000 156.000000
214.000000 1088.000000 156.000000
212.000000 1088.000000 156.000000
210.000000 1088.000000 156.000000
208.000000 1088.000000 156.000000
206.000000 1088.000000 156.000000
204.000000 1088.000000 156.000000
202.000000 1088.000000 156.000000
200.000000 1088.000000 156.000000
198.000000 1088.000000 156.000000
196.000000 1088.000000 156.000000
194.000000 1088.000000 156.000000
192.000000 1088.000000 156.000000
190.000000 1088.000000 156.000000
188.000000 1088.000000 156.000000
186.000000 1088.000000 156.000000
184.000000 1088.000000 156.000000
182.000000 1088.000000 156.000000
180.000000 1088.000000 156.000000
178.000000 1088.000000 156.000000
176.000000 1088.000000 156.000000
174.000000 1088.000000 156.000000
172.000000 1088.000000 156.000000
170.000000 1088.000000 156.000000
168.000000 1088.000000 156.000000
166.000000 1088.000000 156.000000
164.000000 1088.000000 156.000000
162.000000 1088.000000 156.000000
160.000000 1088.000000 156.000000
158.000000 1088.000000 156.000000
156.000000 1088.000000 156.000000
154.000000 1088.000000 156.000000
152.000000 1088.000000 156.000000
150.000000 1088.000000 156.000000
148.000000 1088.000000 156.000000
146.000000 1088.000000 156.000000
144.000000 1088.000000 156.000000
142.000000 1088.000000 156.000000
140.000000 1088.000000 156.000000
138.000000 1088.000000 156.000000
136.000000 1088.000000 156.000000
134.000000 1088.000000 156.000000
132.000000 1088.000000 156.000000
130.000000 1088.000000 156.000000
128.000000 1088.000000 156.000000
126.000000 1088.000000 156.000000
124.000000 1088.000000 156.000000
122.000000 1088.000000 156.000000
120.000000 1088.000000 156.000000
118.000000 1088.000000 156.000000
116.000000 1088.000000 156.000000
114.000000 1088.000000 156.000000
112.000000 1088.000000 156.000000
110.000000 1088.000000 156.000000
108.000000 1088.000000 156.000000
106.000000 1088.000000 156.000000
104.000000 1088.000000 156.000000
102.000000 1088.000000 156.000000
100.000000 1088.000000 156.000000
98.000000 1088.000000 156.000000
96.000000 1088.000000 156.000000
94.000000 1088.000000 156.000000
92.000000 1088.000000 156.000000
90.000000 1088.000000 156.000000
88.000000 1088.000000 156.000000
86.000000 1088.000000 156.000000
84.000000 1088.000000 156.000000
82.000000 1088.000000 156.000000
80.000000 1088.000000 156.000000
78.000000 1088.000000 156.000000
76.000000 1088.000000 156.000000
74.000000 1088.000000 156.000000
72.000000 1088.000000 156.000000
70.000000 1088.000000 156.000000
68.000000 1088.000000 156.000000
66.000000 1088.000000 156.000000
64.000000 1088.000000 156.000000
62.000000 1088.000000 156.000000
60.000000 1088.000000 156.000000
58.000000 1088.000000 156.000000
56.000000 1088.000000 156.000000
54.000000 1088.000000 156.000000
52.000000 1088.000000 156.000000
50.000000 1088.000000 156.000000
48.000000 1088.000000 156.000000
46.000000 1088.000000 156.000000
44.000000 1088.000000 156.000000
42.000000 1088.000000 156.000000
40.000000 1088.000000 156.000000
38.000000 1088.000000 156.000000
36.000000 1088.000000 156.000000
34.000000 1088.000000 156.000000
32.000000 1088.000000 156.000000
30.000000 1088.000000 156.000000
28.000000 1088.000000 156.000000
26.000000 1088.000000 156.000000
24.000000 1088.000000 156.000000
22.000000 1088.000000 156.000000
20.000000 1088.000000 156.000000
18.000000 1088.000000 156.000000
16.000000 1088.000000 156.000000
14.000000 1088.000000 156.000000
12.000000 1088.000000 156.000000
10.000000 1088.000000 156.000000
8.000000 1088.000000 156.000000
6.000000 1088.000000 156.000000
4.000000 1088.000000 156.000000
2.000000 1088.000000 156.000000
0.000000 1088.000000 156.000000
-2.000000 1088.000000 156.000000
-4.000000 1088.000000 156.000000
-6.000000 1088.000000 156.000000
-8.000000 1088.000000 156.000000
-10.000000 1088.000000 156.000000
-12.000000 1088.000000 156.000000
-14.000000 1088.000000 156.000000
-16.000000 1088.000000 156.000000
-18.000000 1088.000000 156.000000
-20.000000 1088.000000 156.000000
-22.000000 1088.000000 156.000000
-24.000000 1088.000000 156.000000
-26.000000 1088.000000 156.000000
-28.000000 1088.000000 156.000000
-30.000000 1088.000000 156.000000
-32.000000 1088.000000 156.000000
-34.000000 1088.000000 156.000000
-36.000000 1088.000000 156.000000
-38.000000 1088.000000 156.000000
-40.000000 1088.000000 156.000000
-42.000000 1088.000000 156.000000
-44.000000 1088.000000 156.000000
-46.000000 1088.000000 156.000000
-48.000000 1088.000000 156.000000
-50.000000 1088.000000 156.000000
-52.000000 1088.000000 156.000000
-54.000000 1088.000000 156.000000
-56.000000 1088.000000 156.000000
-58.000000 1088.000000 156.000000
-60.000000 1088.000000 156.000000
-62.000000 1088.000000 156.000000
-64.000000 1088.000000 156.000000
-66.000000 1088.000000 156.000000
-68.000000 1088.000000 156.000000
-70.000000 1088.000000 156.000000
-72.000000 1088.000000 156.000000
-74.000000 1088.000000 156.000000
-76.000000 1088.000000 156.000000
-78.000000 1088.000000 156.000000
-80.000000 1088.000000 156.000000
-82.000000 1088.000000 156.000000
-84.000000 1088.000000 156.000000
-86.000000 1088.000000 156.000000
-88.000000 1088.000000 156.000000
-90.000000 1088.000000 156.000000
-92.000000 1088.000000 156.000000
-94.000000 1088.000000 156.000000
-96.000000 1088.000000 156.000000
-98.000000 1088.000000 156.000000
-100.000000 1088.000000 156.000000
-102.000000 1088.000000 156.000000
-104.000000 1088.000000 156.000000
-106.000000 1088.000000 156.000000
-108.000000 1088.000000 156.000000
-110.000000 1088.000000 156.000000
-112.000000 1088.000000 156.000000
-114.000000 1088.000000 156.000000
-116.000000 1088.000000 156.000000
-118.000000 1088.000000 156.000000
-120.000000 1088.000000 156.000000
-122.000000 1088.000000 156.000000
-124.000000 1088.000000 156.000000
-126.000000 1088.000000 156.000000
-128.000000 1088.000000 156.000000
-130.000000 1088.000000 156.000000
-132.000000 1088.000000 156.000000
-134.000000 1088.000000 156.000000
-136.000000 1088.000000 156.000000
-138.000000 1088.000000 156.000000
-140.000000 1088.000000 156.000000
-142.000000 1088.000000 156.000000
-144.000000 1088.000000 156.000000
-146.000000 1088.000000 156.000000
-148.000000 1088.000000 156.000000
-150.000000 1088.000000 156.000000
-152.000000 1088.000000 156.000000
-154.000000 1088.000000 156.000000
-156.000000 1088.000000 156.000000
-158.000000 1088.000000 156.000000
-160.000000 1088.000000 156.000000
-162.000000 1088.000000 156.000000
-164.000000 1088.000000 156.000000
-166.000000 1088.000000 156.000000
-168.000000 1088.000000 156.000000
-170.000000 1088.000000 156.000000
-172.000000 1088.000000 156.000000
-174.000000 1088.000000 156.000000
-176.000000 1088.000000 156.000000
-178.000000 1088.000000 156.000000
-180.000000 1088.000000 156.000000
-182.000000 1088.000000 156.000000
-184.000000 1088.000000 156.000000
-186.000000 1088.000000 156.000000
-188.000000 1088.000000 156.000000
-190.000000 1088.000000 156.000000
-192.000000 1088.000000 156.000000
-194.000000 1088.000000 156.000000
-196.000000 1088.000000 156.000000
-198.000000 1088.000000 156.000000
-200.000000 1088.000000 156.000000
-202.000000 1088.000000 156.000000
-204.000000 1088.000000 156.000000
-206.000000 1088.000000 156.000000
-208.000000 1088.000000 156.000000
-210.000000 1088.000000 156.000000
-212.000000 1088.000000 156.000000
-214.000000 1088.000000 156.000000
-216.000000 1088.000000 156.000000
-218.000000 1088.000000 156.000000
-220.000000 1088.000000 156.000000
-222.000000 1088.000000 156.000000
-224.000000 1088.000000 156.000000
-226.000000 1088.000000 156.000000
-228.000000 1088.000000 156.000000
-230.000000 1088.000000 156.000000
-232.000000 1088.000000 156.000000
-234.000000 1088.000000 156.000000
-236.000000 1088.000000 156.000000
-238.000000 1088.000000 156.000000
-240.000000 1088.000000 156.000000
-242.000000 1088.000000 156.000000
-244.000000 1088.000000 156.000000
-246.000000 1088.000000 156.000000
-248.000000 1088.000000 156.000000
-250.000000 1088.000000 156.000000
-252.000000 1088.000000 156.000000
-254.000000 1088.000000 156.000000
-256.000000 1088.000000 156.000000
-258.000000 1088.000000 156.000000
-260.000000 1088.000000 156.000000
-262.000000 1088.000000 156.000000
-264.000000 1088.000000 156.000000
-266.000000 1088.000000 156.000000
-268.000000 1088.000000 156.000000
-270.000000 1088.000000 156.000000
-272.000000 1088.000000 156.000000
-274.000000 1088.000000 156.000000
-276.000000 1088.000000 156.000000
-278.000000 1088.000000 156.000000
-280.000000 1088.000000 156.000000
-282.000000 1088.000000 156.000000
-284.000000 1088.000000 156.000000
-286.000000 1088.000000 156.000000
-288.000000 1088.000000 156.000000
-290.000000 1088.000000 156.000000
-292.000000 1088.000000 156.000000
-294.000000 1088.000000 156.000000
-296.000000 1088.000000 156.000000
-298.000000 1088.000000 156.000000
-300.000000 1088.000000 156.000000
-302.000000 1088.000000 156.000000
-304.000000 1088.000000 156.000000
-306.000000 1088.000000 156.000000
-308.000000 1088.000000 156.000000
-310.000000 1088.000000 156.000000
-312.000000 1088.000000 156.000000
-314.000000 1088.000000 156.000000
-316.000000 1088.000000 156.000000
-318.000000 1088.000000 156.000000
-320.000000 1088.000000 156.000000
-322.000000 1088.000000 156.000000
-324.000000 1088.000000 156.000000
-326.000000 1088.000000 156.000000
-328.000000 1088.000000 156.000000
-330.000000 1088.000000 156.000000
-332.000000 1088.000000 156.000000
-334.000000 1088.000000 156.000000
-336.000000 1088.000000 156.000000
-338.000000 1088.000000 156.000000
-340.000000 1088.000000 156.000000
-342.000000 1088.000000 156.000000
-344.000000 1088.000000 156.000000
-346.000000 1088.000000 156.000000
-348.000000 1088.000000 156.000000
-350.000000 1088.000000 156.000000
-352.000000 1088.000000 156.000000
-354.000000 1088.000000 156.000000
-356.000000 1088.000000 156.000000
-358.000000 1088.000000 156.000000
-360.000000 1088.000000 156.000000
-362.000000 1088.000000 156.000000
-364.000000 1088.000000 156.000000
-366.000000 1088.000000 156.000000
-368.000000 1088.000000 156.000000
-370.000000 1088.000000 156.000000
-372.000000 1088.000000 156.000000
-374.000000 1088.000000 156.000000
-376.000000 1088.000000 156.000000
-378.000000 1088.000000 156.000000
-380.000000 1088.000000 156.000000
-382.000000 1088.000000 156.000000
-384.000000 1088.000000 156.000000
-386.000000 1088.000000 156.000000
-388.000000 1088.000000 156.000000
-390.000000 1088.000000 156.000000
-392.000000 1088.000000 156.000000
-394.000000 1088.000000 156.000000
-396.000000 1088.000000 156.000000
-398.000000 1088.000000 156.000000
-400.000000 1088.000000 156.000000
-402.000000 1088.000000 156.000000
-404.000000 1088.000000 156.000000
-406.000000 1088.000000 156.000000
-408.000000 1088.000000 156.000000
-410.000000 1088.000000 156.000000
-412.000000 1088.000000 156.000000
-414.000000 1088.000000 156.000000
-416.000000 1088.000000 156.000000
-418.000000 1088.000000 156.000000
-420.000000 1088.000000 156.000000
-422.000000 1088.000000 156.000000
-424.000000 1088.000000 156.000000
-426.000000 1088.000000 156.000000
-428.000000 1088.000000 156.000000
-430.000000 1088.000000 156.000000
-432.000000 1088.000000 156.000000
-434.000000 1088.000000 156.000000
-436.000000 1088.000000 156.000000
-438.000000 1088.000000 156.000000
-440.000000 1088.000000 156.000000
-442.000000 1088.000000 156.000000
-444.000000 1088.000000 156.000000
-446.000000 1088.000000 156.000000
-448.000000 1088.000000 156.000000
-450.000000 1088.000000 156.000000
-452.000000 1088.000000 156.000000
-454.000000 1088.000000 156.000000
-456.000000 1088.000000 156.000000
-458.000000 1088.000000 156.000000
-460.000000 1088.000000 156.000000
-462.000000 1088.000000 156.000000
-464.000000 1088.000000 156.000000
-466.000000 1088.000000 156.000000
-468.000000 1088.000000 156.000000
-470.000000 1088.000000 156.000000
-472.000000 1088.000000 156.000000
-474.000000 1088.000000 156.000000
-476.000000 1088.000000 156.000000
-478.000000 1088.000000 156.000000
-480.000000 1088.000000 156.000000
-482.000000 1088.000000 156.000000
-484.000000 1088.000000 156.000000
-486.000000 1088.000000 156.000000
-488.000000 1088.000000 156.000000
-490.000000 1088.000000 156.000000
-492.000000 1088.000000 156.000000
-494.000000 1088.000000 156.000000
-496.000000 1088.000000 156.000000
-498.000000 1088.000000 156.000000
-500.000000 1088.000000 156.000000
-502.000000 1088.000000 156.000000
-504.000000 1088.000000 156.000000
-506.000000 1088.000000 156.000000
-508.000000 1088.000000 156.000000
-510.000000 1088.000000 156.000000
-512.000000 1088.000000 156.000000
-514.000000 1088.000000 156.000000
-516.000000 1088.000000 156.000000
-518.000000 1088.000000 156.000000
-520.000000 1088.000000 156.000000
-522.000000 1088.000000 156.000000
-524.000000 1088.000000 156.000000
-526.000000 1088.000000 156.000000
-528.000000 1088.000000 156.000000
-530.000000 1088.000000 156.000000
-532.000000 1088.000000 156.000000
-534.000000 1088.000000 156.000000
-536.000000 1088.000000 156.000000
-538.000000 1088.000000 156.000000
-540.000000 1088.000000 156.000000
-542.000000 1088.000000 156.000000
-544.000000 1088.000000 156.000000
-546.000000 1088.000000 156.000000
-548.000000 1088.000000 156.000000
-550.000000 1088.000000 156.000000
-552.000000 1088.000000 156.000000
-554.000000 1088.000000 156.000000
-556.000000 1088.000000 156.000000
-558.000000 1088.000000 156.000000
-560.000000 1088.000000 156.000000
-562.000000 1088.000000 156.000000
-564.000000 1088.000000 156.000000
-566.000000 1088.000000 156.000000
-568.000000 1088.000000 156.000000
-570.000000 1088.000000 156.000000
-572.000000 1088.000000 156.000000
-574.000000 1088.000000 156.000000
-576.000000 1088.000000 156.000000
-578.000000 1088.000000 156.000000
-580.000000 1088.000000 156.000000
-582.000000 1088.000000 156.000000
-584.000000 1088.000000 156.000000
-586.000000 1088.000000 156.000000
-588.000000 1088.000000 156.000000
-590.000000 1088.000000 156.000000
-592.000000 1088.000000 156.000000
-594.000000 1088.000000 156.000000
-596.000000 1088.000000 156.000000
-598.000000 1088.000000 156.000000
-600.000000 1088.000000 156.000000
-602.000000 1088.000000 156.000000
-604.000000 1088.000000 156.000000
-606.000000 1088.000000 156.000000
-608.000000 1088.000000 156.000000
-610.000000 1088.000000 156.000000
-612.000000 1088.000000 156.000000
-614.000000 1088.000000 156.000000
-616.000000 1088.000000 156.000000
-618.000000 1088.000000 156.000000
-620.000000 1088.000000 156.000000
-622.000000 1088.000000 156.000000
-624.000000 1088.000000 156.000000
-626.000000 1088.000000 156.000000
-628.000000 1088.000000 156.000000
-630.000000 1088.000000 156.000000
-632.000000 1088.000000 156.000000
-634.000000 1088.000000 156.000000
-636.000000 1088.000000 156.000000
-638.000000 1088.000000 156.000000
-640.000000 1088.000000 156.000000
-642.000000 1088.000000 156.000000
-644.000000 1088.000000 156.000000
-646.000000 1088.000000 156.000000
-648.000000 1088.000000 156.000000
-652.000000 1088.000000 156.000000
-652.000000 1086.000000 156.000000
-652.000000 1084.000000 156.000000
-652.000000 1082.000000 156.000000
-652.000000 1080.000000 156.000000
-652.000000 1078.000000 156.000000
-652.000000 1076.000000 156.000000
-652.000000 1074.000000 156.000000
-652.000000 1072.000000 156.000000
-652.000000 1070.000000 156.000000
-652.000000 1068.000000 156.000000
-652.000000 1066.000000 156.000000
-652.000000 1064.000000 156.000000
-652.000000 1062.000000 156.000000
-652.000000 1060.000000 156.000000
-652.000000 1058.000000 156.000000
-652.000000 1056.000000 156.000000
-652.000000 1054.000000 156.000000
-652.000000 1052.000000 156.000000
-652.000000 1050.000000 156.000000
-652.000000 1048.000000 156.000000
-652.000000 1046.000000 156.000000
-652.000000 1044.000000 156.000000
-652.000000 1042.000000 156.000000
-652.000000 1040.000000 156.000000
-652.000000 1038.000000 156.000000
-652.000000 1036.000000 156.000000
-652.000000 1034.000000 156.000000
-652.000000 1032.000000 156.000000
-652.000000 1030.000000 156.000000
-652.000000 1028.000000 156.000000
-652.000000 1026.000000 156.000000
-652.000000 1024.000000 156.000000
-652.000000 1022.000000 156.000000
-652.000000 1020.000000 156.000000
-652.000000 1018.000000 156.000000
-652.000000 1016.000000 156.000000
-652.000000 1014.000000 156.000000
-652.000000 1012.000000 156.000000
-652.000000 1010.000000 156.000000
-652.000000 1008.000000 156.000000
-652.000000 1006.000000 156.000000
-652.000000 1004.000000 156.000000
-652.000000 1002.000000 156.000000
-652.000000 1000.000000 156.000000
-652.000000 998.000000 156.000000
-652.000000 996.000000 156.000000
-652.000000 994.000000 156.000000
-652.000000 992.000000 156.000000
-652.000000 990.000000 156.000000
-652.000000 988.000000 156.000000
-652.000000 986.000000 156.000000
-652.000000 984.000000 156.000000
-652.000000 982.000000 156.000000
-652.000000 980.000000 156.000000
-652.000000 978.000000 156.000000
-652.000000 976.000000 156.000000
-652.000000 974.000000 156.000000
-652.000000 972.000000 156.000000
-652.000000 970.000000 156.000000
-652.000000 968.000000 156.000000
-652.000000 966.000000 156.000000
-652.000000 964.000000 156.000000
-652.000000 962.000000 156.000000
-652.000000 960.000000 156.000000
-652.000000 958.000000 156.000000
-652.000000 956.000000 156.000000
-652.000000 954.000000 156.000000
-652.000000 952.000000 156.000000
-652.000000 950.000000 156.000000
-652.000000 948.000000 156.000000
-652.000000 946.000000 156.000000
-652.000000 944.000000 156.000000
-652.000000 942.000000 156.000000
-652.000000 940.000000 156.000000
-652.000000 938.000000 156.000000
-652.000000 936.000000 156.000000
-652.000000 934.000000 156.000000
-652.000000 932.000000 156.000000
-652.000000 930.000000 156.000000
-652.000000 928.000000 156.000000
-652.000000 926.000000 156.000000
-652.000000 924.000000 156.000000
-652.000000 922.000000 156.000000
-652.000000 920.000000 156.000000
-652.000000 918.000000 156.000000
-652.000000 916.000000 156.000000
-652.000000 914.000000 156.000000
-652.000000 912.000000 156.000000
-652.000000 910.000000 156.000000
-652.000000 908.000000 156.000000
-652.000000 906.000000 156.000000
-652.000000 904.000000 156.000000
-652.000000 902.000000 156.000000
-652.000000 900.000000 156.000000
-652.000000 898.000000 156.000000
-652.000000 896.000000 156.000000
-652.000000 894.000000 156.000000
-652.000000 892.000000 156.000000
-652.000000 890.000000 156.000000
-652.000000 888.000000 156.000000
-652.000000 886.000000 156.000000
-652.000000 884.000000 156.000000
-652.000000 882.000000 156.000000
-652.000000 880.000000 156.000000
-652.000000 878.000000 156.000000
-652.000000 876.000000 156.000000
-652.000000 874.000000 156.000000
-652.000000 872.000000 156.000000
-652.000000 870.000000 156.000000
-652.000000 868.000000 156.000000
-652.000000 866.000000 156.000000
-652.000000 864.000000 156.000000
-652.000000 862.000000 156.000000
-652.000000 860.000000 156.000000
-652.000000 858.000000 156.000000
-652.000000 856.000000 156.000000
-652.000000 854.000000 156.000000
-652.000000 852.000000 156.000000
-652.000000 850.000000 156.000000
-652.000000 848.000000 156.000000
-652.000000 846.000000 156.000000
-652.000000 844.000000 156.000000
-652.000000 842.000000 156.000000
-652.000000 840.000000 156.000000
-652.000000 838.000000 156.000000
-652.000000 836.000000 156.000000
-652.000000 834.000000 156.000000
-652.000000 832.000000 156.000000
-652.000000 830.000000 156.000000
-652.000000 828.000000 156.000000
-652.000000 826.000000 156.000000
-652.000000 824.000000 156.000000
-652.000000 822.000000 156.000000
-652.000000 820.000000 156.000000
-652.000000 818.000000 156.000000
-652.000000 816.000000 156.000000
-652.000000 814.000000 156.000000
-652.000000 812.000000 156.000000
-652.000000 810.000000 156.000000
-652.000000 808.000000 156.000000
-652.000000 806.000000 156.000000
-652.000000 804.000000 156.000000
-652.000000 802.000000 156.000000
-652.000000 800.000000 156.000000
-652.000000 798.000000 156.000000
-652.000000 796.000000 156.000000
-652.000000 794.000000 156.000000
-652.000000 792.000000 156.000000
-652.000000 790.000000 156.000000
-652.000000 788.000000 156.000000
-652.000000 786.000000 156.000000
-652.000000 784.000000 156.000000
-652.000000 782.000000 156.000000
-652.000000 780.000000 156.000000
-652.000000 778.000000 156.000000
-652.000000 776.000000 156.000000
-652.000000 774.000000 156.000000
-652.000000 772.000000 156.000000
-652.000000 770.000000 156.000000
-652.000000 768.000000 156.000000
-652.000000 766.000000 156.000000
-652.000000 764.000000 156.000000
-652.000000 762.000000 156.000000
-652.000000 760.000000 156.000000
-652.000000 758.000000 156.000000
-652.000000 756.000000 156.000000
-652.000000 754.000000 156.000000
-652.000000 752.000000 156.000000
-652.000000 750.000000 156.000000
-652.000000 748.000000 156.000000
-652.000000 746.000000 156.000000
-652.000000 744.000000 156.000000
-652.000000 742.000000 156.000000
-652.000000 740.000000 156.000000
-652.000000 738.000000 156.000000
-652.000000 736.000000 156.000000
-652.000000 734.000000 156.000000
-652.000000 732.000000 156.000000
-652.000000 730.000000 156.000000
-652.000000 728.000000 156.000000
-652.000000 726.000000 156.000000
-652.000000 724.000000 156.000000
-652.000000 722.000000 156.000000
-652.000000 720.000000 156.000000
-652.000000 718.000000 156.000000
-652.000000 716.000000 156.000000
-652.000000 714.000000 156.000000
-652.000000 712.000000 156.000000
-652.000000 710.000000 156.000000
-652.000000 708.000000 156.000000
-652.000000 706.000000 156.000000
-652.000000 704.000000 156.000000
-652.000000 702.000000 156.000000
-652.000000 700.000000 156.000000
-652.000000 698.000000 156.000000
-652.000000 696.000000 156.000000
-652.000000 694.000000 156.000000
-652.000000 692.000000 156.000000
-652.000000 690.000000 156.000000
-652.000000 688.000000 156.000000
-652.000000 686.000000 156.000000
-652.000000 684.000000 156.000000
-652.000000 682.000000 156.000000
-652.000000 680.000000 156.000000
-652.000000 678.000000 156.000000
-652.000000 676.000000 156.000000
-652.000000 674.000000 156.000000
-652.000000 672.000000 156.000000
-652.000000 670.000000 156.000000
-652.000000 668.000000 156.000000
-652.000000 666.000000 156.000000
-652.000000 664.000000 156.000000
-652.000000 662.000000 156.000000
-652.000000 660.000000 156.000000
-652.000000 658.000000 156.000000
-652.000000 656.000000 156.000000
-652.000000 654.000000 156.000000
-652.000000 652.000000 156.000000
-652.000000 650.000000 156.000000
-652.000000 648.000000 156.000000
-652.000000 646.000000 156.000000
-652.000000 644.000000 156.000000
-652.000000 642.000000 156.000000
-652.000000 640.000000 156.000000
-652.000000 638.000000 156.000000
-652.000000 636.000000 156.000000
-652.000000 634.000000 156.000000
-652.000000 632.000000 156.000000
-652.000000 630.000000 156.000000
-652.000000 628.000000 156.000000
-652.000000 626.000000 156.000000
-652.000000 624.000000 156.000000
-652.000000 622.000000 156.000000
-652.000000 620.000000 156.000000
-652.000000 618.000000 156.000000
-652.000000 616.000000 156.000000
-652.000000 614.000000 156.000000
-652.000000 612.000000 156.000000
-652.000000 610.000000 156.000000
-652.000000 608.000000 156.000000
-652.000000 606.000000 156.000000
-652.000000 604.000000 156.000000
-652.000000 602.000000 156.000000
-652.000000 600.000000 156.000000
-652.000000 598.000000 156.000000
-652.000000 596.000000 156.000000
-652.000000 594.000000 156.000000
-652.000000 592.000000 156.000000
-652.000000 590.000000 156.000000
-652.000000 588.000000 156.000000
-652.000000 586.000000 156.000000
-652.000000 584.000000 156.000000
-652.000000 582.000000 156.000000
-652.000000 580.000000 156.000000
-652.000000 578.000000 156.000000
-652.000000 576.000000 156.000000
-652.000000 574.000000 156.000000
-652.000000 572.000000 156.000000
-652.000000 570.000000 156.000000
-652.000000 568.000000 156.000000
-652.000000 566.000000 156.000000
-652.000000 564.000000 156.000000
-652.000000 562.000000 156.000000
-652.000000 560.000000 156.000000
-652.000000 558.000000 156.000000
-652.000000 556.000000 156.000000
-652.000000 554.000000 156.000000
-652.000000 552.000000 156.000000
-652.000000 550.000000 156.000000
-652.000000 548.000000 156.000000
-652.000000 546.000000 156.000000
-652.000000 544.000000 156.000000
-652.000000 542.000000 156.000000
-652.000000 540.000000 156.000000
-652.000000 538.000000 156.000000
-652.000000 536.000000 156.000000
-652.000000 534.000000 156.000000
-652.000000 532.000000 156.000000
-652.000000 530.000000 156.000000
-652.000000 528.000000 156.000000
-652.000000 526.000000 156.000000
-652.000000 524.000000 156.000000
-652.000000 522.000000 156.000000
-652.000000 520.000000 156.000000
-652.000000 518.000000 156.000000
-652.000000 516.000000 156.000000
-652.000000 514.000000 156.000000
-652.000000 510.000000 156.000000
-652.000000 508.000000 156.000000
-652.000000 506.000000 156.000000
-652.000000 504.000000 156.000000
-652.000000 502.000000 156.000000
-652.000000 500.000000 156.000000
-652.000000 498.000000 156.000000
-652.000000 496.000000 156.000000
-652.000000 494.000000 156.000000
-652.000000 492.000000 156.000000
-652.000000 490.000000 156.000000
-652.000000 488.000000 156.000000
-652.000000 486.000000 156.000000
-652.000000 484.000000 156.000000
-652.000000 482.000000 156.000000
-652.000000 480.000000 156.000000
-652.000000 478.000000 156.000000
-652.000000 476.000000 156.000000
-652.000000 474.000000 156.000000
-652.000000 472.000000 156.000000
-652.000000 470.000000 156.000000
-652.000000 468.000000 156.000000
-652.000000 466.000000 156.000000
-652.000000 464.000000 156.000000
-652.000000 462.000000 156.000000
-652.000000 460.000000 156.000000
-652.000000 458.000000 156.000000
-652.000000 456.000000 156.000000
-652.000000 454.000000 156.000000
-652.000000 452.000000 156.000000
-652.000000 450.000000 156.000000
-652.000000 448.000000 156.000000
-652.000000 446.000000 156.000000
-652.000000 444.000000 156.000000
-652.000000 442.000000 156.000000
-652.000000 440.000000 156.000000
-652.000000 438.000000 156.000000
-652.000000 436.000000 156.000000
-652.000000 434.000000 156.000000
-652.000000 432.000000 156.000000
-652.000000 430.000000 156.000000
-652.000000 428.000000 156.000000
-652.000000 426.000000 156.000000
-652.000000 424.000000 156.000000
-652.000000 422.000000 156.000000
-652.000000 420.000000 156.000000
-652.000000 418.000000 156.000000
-652.000000 416.000000 156.000000
-652.000000 414.000000 156.000000
-652.000000 412.000000 156.000000
-652.000000 410.000000 156.000000
-652.000000 408.000000 156.000000
-652.000000 406.000000 156.000000
-652.000000 404.000000 156.000000
-652.000000 402.000000 156.000000
-652.000000 400.000000 156.000000
-652.000000 398.000000 156.000000
-652.000000 396.000000 156.000000
-652.000000 394.000000 156.000000
-652.000000 392.000000 156.000000
-652.000000 390.000000 156.000000
-652.000000 388.000000 156.000000
-652.000000 386.000000 156.000000
-652.000000 384.000000 156.000000
-652.000000 382.000000 156.000000
-652.000000 380.000000 156.000000
-652.000000 378.000000 156.000000
-652.000000 376.000000 156.000000
-652.000000 374.000000 156.000000
-652.000000 372.000000 156.000000
-652.000000 370.000000 156.000000
-652.000000 368.000000 156.000000
-652.000000 366.000000 156.000000
-652.000000 364.000000 156.000000
-652.000000 362.000000 156.000000
-652.000000 360.000000 156.000000
-652.000000 358.000000 156.000000
-652.000000 356.000000 156.000000
-652.000000 354.000000 156.000000
-652.000000 352.000000 156.000000
-652.000000 350.000000 156.000000
-652.000000 348.000000 156.000000
-652.000000 346.000000 156.000000
-652.000000 344.000000 156.000000
-652.000000 342.000000 156.000000
-652.000000 340.000000 156.000000
-652.000000 338.000000 156.000000
-652.000000 336.000000 156.000000
-652.000000 334.000000 156.000000
-652.000000 332.000000 156.000000
-652.000000 330.000000 156.000000
-652.000000 328.000000 156.000000
-652.000000 326.000000 156.000000
-652.000000 324.000000 156.000000
-652.000000 322.000000 156.000000
-652.000000 320.000000 156.000000
-652.000000 318.000000 156.000000
-652.000000 316.000000 156.000000
-652.000000 314.000000 156.000000
-652.000000 312.000000 156.000000
-652.000000 310.000000 156.000000
-652.000000 308.000000 156.000000
-652.000000 306.000000 156.000000
-652.000000 304.000000 156.000000
-652.000000 302.000000 156.000000
-652.000000 300.000000 156.000000
-652.000000 298.000000 156.000000
-652.000000 296.000000 156.000000
-652.000000 294.000000 156.000000
-652.000000 292.000000 156.000000
-652.000000 290.000000 156.000000
-652.000000 288.000000 156.000000
-652.000000 286.000000 156.000000
-652.000000 284.000000 156.000000
-652.000000 282.000000 156.000000
-652.000000 280.000000 156.000000
-652.000000 278.000000 156.000000
-652.000000 276.000000 156.000000
-652.000000 272.000000 156.000000
-650.088442 271.411828 156.000000
-648.176884 270.823657 156.000000
-646.265326 270.235485 156.000000
-644.353768 269.647313 156.000000
-642.442210 269.059142 156.000000
-640.530652 268.470970 156.000000
-638.619094 267.882798 156.000000
-636.707536 267.294626 156.000000
-634.795978 266.706455 156.000000
-632.884420 266.118283 156.000000
-630.972862 265.530111 156.000000
-629.061304 264.941940 156.000000
-627.149746 264.353768 156.000000
-625.238188 263.765596 156.000000
-623.326630 263.177425 156.000000
-621.415072 262.589253 156.000000
-619.503514 262.001081 156.000000
-617.591956 261.412909 156.000000
-615.680398 260.824738 156.000000
-613.768840 260.236566 156.000000
-611.857282 259.648394 156.000000
-609.945724 259.060223 156.000000
-608.034166 258.472051 156.000000
-606.122608 257.883879 156.000000
-604.211050 257.295708 156.000000
-602.299492 256.707536 156.000000
-600.000000 256.000000 156.000000
-599.339875 255.532411 154.170903
-598.679750 255.064823 152.341806
-598.019624 254.597234 150.512709
-597.359499 254.129645 148.683612
-596.699374 253.662057 146.854515
-596.039249 253.194468 145.025418
-595.379124 252.726879 143.196322
-594.718998 252.259291 141.367225
-594.058873 251.791702 139.538128
-593.398748 251.324113 137.709031
-592.738623 250.856524 135.879934
-592.078498 250.388936 134.050837
-591.418372 249.921347 132.221740
-590.758247 249.453758 130.392643
-590.098122 248.986170 128.563546
-589.437997 248.518581 126.734449
-588.777872 248.050992 124.905352
-588.117746 247.583404 123.076255
-587.457621 247.115815 121.247159
-586.797496 246.648226 119.418062
-586.137371 246.180638 117.588965
-585.477246 245.713049 115.759868
-584.817120 245.245460 113.930771
-584.156995 244.777872 112.101674
-583.496870 244.310283 110.272577
-582.836745 243.842694 108.443480
-582.176620 243.375105 106.614383
-581.516494 242.907517 104.785286
-580.856369 242.439928 102.956189
-580.196244 241.972339 101.127092
-579.536119 241.504751 99.297996
-578.875993 241.037162 97.468899
-578.215868 240.569573 95.639802
-577.555743 240.101985 93.810705
-576.895618 239.634396 91.981608
-576.235493 239.166807 90.152511
-575.575367 238.699219 88.323414
-574.915242 238.231630 86.494317
-574.255117 237.764041 84.665220
-573.594992 237.296453 82.836123
-572.934867 236.828864 81.007026
-572.274741 236.361275 79.177929
-571.614616 235.893687 77.348833
-570.954491 235.426098 75.519736
-570.294366 234.958509 73.690639
-569.634241 234.490920 71.861542
-568.974115 234.023332 70.032445
-568.313990 233.555743 68.203348
-567.653865 233.088154 66.374251
-566.993740 232.620566 64.545154
-566.333615 232.152977 62.716057
-565.673489 231.685388 60.886960
-565.013364 231.217800 59.057863
-564.353239 230.750211 57.228766
-563.693114 230.282622 55.399669
-563.032989 229.815034 53.570573
-562.372863 229.347445 51.741476
-561.712738 228.879856 49.912379
-561.052613 228.412268 48.083282
-560.392488 227.944679 46.254185
-559.732363 227.477090 44.425088
-559.072237 227.009501 42.595991
-558.412112 226.541913 40.766894
-557.751987 226.074324 38.937797
-557.091862 225.606735 37.108700
-556.431737 225.139147 35.279603
-555.771611 224.671558 33.450506
-555.111486 224.203969 31.621410
-554.451361 223.736381 29.792313
-553.791236 223.268792 27.963216
-553.131111 222.801203 26.134119
-552.470985 222.333615 24.305022
-551.810860 221.866026 22.475925
-551.150735 221.398437 20.646828
-550.490610 220.930849 18.817731
-549.830485 220.463260 16.988634
-549.170359 219.995671 15.159537
-548.510234 219.528083 13.330440
-547.850109 219.060494 11.501343
-547.189984 218.592905 9.672247
-546.529859 218.125316 7.843150
-545.869733 217.657728 6.014053
-545.209608 217.190139 4.184956
-544.549483 216.722550 2.355859
-543.889358 216.254962 0.526762
-543.229232 215.787373 -1.302335
-542.569107 215.319784 -3.131432
-541.908982 214.852196 -4.960529
-541.248857 214.384607 -6.789626
-540.588732 213.917018 -8.618723
-539.928606 213.449430 -10.447820
-539.268481 212.981841 -12.276916
-538.608356 212.514252 -14.106013
-537.948231 212.046664 -15.935110
-537.288106 211.579075 -17.764207
-536.627980 211.111486 -19.593304
-535.967855 210.643897 -21.422401
-535.307730 210.176309 -23.251498
-534.647605 209.708720 -25.080595
-533.987480 209.241131 -26.909692
-533.327354 208.773543 -28.738789
-532.667229 208.305954 -30.567886
-532.007104 207.838365 -32.396983
-531.346979 207.370777 -34.226080
-530.686854 206.903188 -36.055176
-530.026728 206.435599 -37.884273
-529.366603 205.968011 -39.713370
-528.706478 205.500422 -41.542467
-528.046353 205.032833 -43.371564
-527.386228 204.565245 -45.200661
-526.726102 204.097656 -47.029758
-526.065977 203.630067 -48.858855
-525.405852 203.162478 -50.687952
-524.745727 202.694890 -52.517049
-524.085602 202.227301 -54.346146
-523.425476 201.759712 -56.175243
-522.765351 201.292124 -58.004339
-522.105226 200.824535 -59.833436
-521.445101 200.356946 -61.662533
-520.784976 199.889358 -63.491630
-520.124850 199.421769 -65.320727
-519.464725 198.954180 -67.149824
-518.804600 198.486592 -68.978921
-518.144475 198.019003 -70.808018
-517.484350 197.551414 -72.637115
-516.824224 197.083826 -74.466212
-516.164099 196.616237 -76.295309
-515.503974 196.148648 -78.124406
-514.843849 195.681060 -79.953502
-514.183724 195.213471 -81.782599
-513.523598 194.745882 -83.611696
-512.863473 194.278293 -85.440793
-512.203348 193.810705 -87.269890
-511.543223 193.343116 -89.098987
-510.883098 192.875527 -90.928084
-510.222972 192.407939 -92.757181
-509.562847 191.940350 -94.586278
-508.902722 191.472761 -96.415375
-508.242597 191.005173 -98.244472
-507.582471 190.537584 -100.073569
-506.922346 190.069995 -101.902665
-506.262221 189.602407 -103.731762
-505.602096 189.134818 -105.560859
-504.941971 188.667229 -107.389956
-504.281845 188.199641 -109.219053
-503.621720 187.732052 -111.048150
-502.961595 187.264463 -112.877247
-502.301470 186.796874 -114.706344
-501.641345 186.329286 -116.535441
-500.981219 185.861697 -118.364538
-500.321094 185.394108 -120.193635
-499.660969 184.926520 -122.022732
-499.000844 184.458931 -123.851828
-498.340719 183.991342 -125.680925
-497.680593 183.523754 -127.510022
-497.020468 183.056165 -129.339119
-496.360343 182.588576 -131.168216
-495.700218 182.120988 -132.997313
-495.040093 181.653399 -134.826410
-494.379967 181.185810 -136.655507
-493.719842 180.718222 -138.484604
-493.059717 180.250633 -140.313701
-492.399592 179.783044 -142.142798
-491.739467 179.315456 -143.971895
-491.079341 178.847867 -145.800992
-490.419216 178.380278 -147.630088
-489.759091 177.912689 -149.459185
-489.098966 177.445101 -151.288282
-488.438841 176.977512 -153.117379
-487.778715 176.509923 -154.946476
-487.118590 176.042335 -156.775573
-486.458465 175.574746 -158.604670
-485.798340 175.107157 -160.433767
-485.138215 174.639569 -162.262864
-484.478089 174.171980 -164.091961
-483.817964 173.704391 -165.921058
-483.157839 173.236803 -167.750155
-482.497714 172.769214 -169.579251
-481.837589 172.301625 -171.408348
-481.177463 171.834037 -173.237445
-480.517338 171.366448 -175.066542
-479.857213 170.898859 -176.895639
-479.197088 170.431270 -178.724736
-478.536963 169.963682 -180.553833
-477.876837 169.496093 -182.382930
-477.216712 169.028504 -184.212027
-476.556587 168.560916 -186.041124
-475.896462 168.093327 -187.870221
-475.236337 167.625738 -189.699318
-474.576211 167.158150 -191.528414
-473.916086 166.690561 -193.357511
-473.255961 166.222972 -195.186608
-472.595836 165.755384 -197.015705
-471.935711 165.287795 -198.844802
-471.275585 164.820206 -200.673899
-470.615460 164.352618 -202.502996
-469.955335 163.885029 -204.332093
-469.295210 163.417440 -206.161190
-468.635084 162.949852 -207.990287
-467.974959 162.482263 -209.819384
-467.314834 162.014674 -211.648481
-466.654709 161.547085 -213.477577
-465.994584 161.079497 -215.306674
-465.334458 160.611908 -217.135771
-464.674333 160.144319 -218.964868
-464.014208 159.676731 -220.793965
-463.354083 159.209142 -222.623062
-462.693958 158.741553 -224.452159
-462.033832 158.273965 -226.281256
-461.373707 157.806376 -228.110353
-460.713582 157.338787 -229.939450
-460.053457 156.871199 -231.768547
-459.393332 156.403610 -233.597644
-458.733206 155.936021 -235.426741
-458.073081 155.468433 -237.255837
-457.412956 155.000844 -239.084934
-456.752831 154.533255 -240.914031
-456.092706 154.065666 -242.743128
-455.432580 153.598078 -244.572225
-454.772455 153.130489 -246.401322
-454.112330 152.662900 -248.230419
-453.452205 152.195312 -250.059516
-452.792080 151.727723 -251.888613
-452.131954 151.260134 -253.717710
-451.471829 150.792546 -255.546807
-450.811704 150.324957 -257.375904
-450.151579 149.857368 -259.205000
-449.491454 149.389780 -261.034097
-448.831328 148.922191 -262.863194
-448.171203 148.454602 -264.692291
-447.511078 147.987014 -266.521388
-446.850953 147.519425 -268.350485
-446.190828 147.051836 -270.179582
-445.530702 146.584248 -272.008679
-444.870577 146.116659 -273.837776
-444.210452 145.649070 -275.666873
-443.550327 145.181481 -277.495970
-442.890202 144.713893 -279.325067
-442.230076 144.246304 -281.154163
-441.569951 143.778715 -282.983260
-440.909826 143.311127 -284.812357
-440.249701 142.843538 -286.641454
-439.589576 142.375949 -288.470551
-438.929450 141.908361 -290.299648
-438.269325 141.440772 -292.128745
-437.609200 140.973183 -293.957842
-436.949075 140.505595 -295.786939
-436.288950 140.038006 -297.616036
-435.628824 139.570417 -299.445133
-434.968699 139.102829 -301.274230
-434.308574 138.635240 -303.103326
-433.648449 138.167651 -304.932423
-432.988323 137.700062 -306.761520
-432.328198 137.232474 -308.590617
-431.668073 136.764885 -310.419714
-431.007948 136.297296 -312.248811
-430.347823 135.829708 -314.077908
-429.687697 135.362119 -315.907005
-429.027572 134.894530 -317.736102
-428.367447 134.426942 -319.565199
-427.707322 133.959353 -321.394296
-427.047197 133.491764 -323.223393
-426.387071 133.024176 -325.052490
-425.726946 132.556587 -326.881586
-425.066821 132.088998 -328.710683
-424.406696 131.621410 -330.539780
-423.746571 131.153821 -332.368877
-423.086445 130.686232 -334.197974
-422.426320 130.218643 -336.027071
-421.766195 129.751055 -337.856168
-421.106070 129.283466 -339.685265
-420.445945 128.815877 -341.514362
-419.785819 128.348289 -343.343459
-419.125694 127.880700 -345.172556
-418.465569 127.413111 -347.001653
-417.805444 126.945523 -348.830749
-417.145319 126.477934 -350.659846
-416.485193 126.010345 -352.488943
-415.825068 125.542757 -354.318040
-415.164943 125.075168 -356.147137
-414.504818 124.607579 -357.976234
-413.844693 124.139991 -359.805331
-413.184567 123.672402 -361.634428
-412.524442 123.204813 -363.463525
-411.864317 122.737225 -365.292622
-411.204192 122.269636 -367.121719
-410.544067 121.802047 -368.950816
-409.883941 121.334458 -370.779912
-409.223816 120.866870 -372.609009
